# .PCD v0.7 - Point Cloud Data file format
VERSION 0.7
FIELDS x y z intensity
SIZE 4 4 4 4
TYPE F F F F
COUNT 1 1 1 1
WIDTH 1524
HEIGHT 1
VIEWPOINT 0 0 0 1 0 0 0
POINTS 1524
DATA ascii
-3.3498147 2.9249713 -1.0777177 30
-3.3165421 2.9319849 -1.0725982 39
-3.2883699 2.9432271 -1.0691853 34
-3.2537155 2.948375 -1.0635782 26
-3.2277002 2.9610744 -1.0608965 25
-3.1980979 2.9702666 -1.056996 25
-3.1685047 2.9792073 -1.0530955 35
-3.1410306 2.9899025 -1.0499263 33
-3.1058612 2.9929729 -1.0440755 38
-3.0756335 3.0004637 -1.0399311 52
-3.0461216 3.0083783 -1.0360305 45
-3.0152566 3.014673 -1.0316424 37
-2.9857934 3.0220821 -1.0277419 33
-2.9583857 3.0313251 -1.0245727 27
-2.9249177 3.0340638 -1.0192095 34
-2.8982179 3.0435278 -1.016284 36
-2.8715127 3.0527787 -1.0133586 22
-2.8428221 3.0596859 -1.0097018 38
-2.8154671 3.067785 -1.0065327 28
-2.7887719 3.0763824 -1.0036073 30
-2.7640188 3.086935 -1.0014132 25
-2.7366705 3.0943949 -0.99824399 29
-2.7195468 3.1133192 -0.99897534 21
-2.6813805 3.1079235 -0.99166185 30
-2.6641479 3.1265316 -0.9923932 22
-2.6336694 3.1294665 -0.98800504 11
-2.6075964 3.1373651 -0.98532343 12
-2.5926056 3.1585522 -0.98702991 9
-2.5646234 3.1638556 -0.98361695 10
-2.5215168 3.1500108 -0.97410935 32
-2.4931169 3.1540134 -0.97045261 27
-2.4671507 3.1608436 -0.96777099 9
-2.4370492 3.1620986 -0.96338284 16
-2.4046752 3.160017 -0.95801961 13
-2.3776643 3.1646347 -0.95485038 19
-2.3535776 3.1729343 -0.95290011 26
-2.3289056 3.1802752 -0.95070606 20
-2.3082111 3.1929336 -0.9502185 20
-2.2885761 3.2070365 -0.9502185 20
-2.2677376 3.2194331 -0.94973093 23
-2.2407408 3.2229373 -0.94656175 12
-2.2165313 3.2302296 -0.94461149 18
-2.1928608 3.2381492 -0.94290495 35
-2.1573167 3.228164 -0.93583524 12
-2.1374683 3.2413404 -0.93583524 26
-2.1101313 3.2430162 -0.93242222 34
-2.0828543 3.2444792 -0.92900926 24
-2.058754 3.2506447 -0.92705899 49
-2.0377414 3.2615712 -0.92657143 33
-2.0110726 3.2632818 -0.92340225 27
-1.9935316 3.2797031 -0.92462116 43
-1.9758646 3.2960317 -0.92584008 20
-1.9506655 3.2997463 -0.92340225 22
-1.9382005 3.3250568 -0.92730278 13
-1.9056741 3.3158691 -0.92120814 23
-1.880509 3.3190632 -0.91877031 16
-1.856323 3.3237667 -0.91682005 18
-1.8316822 3.3274491 -0.914626 13
-1.8029017 3.3232837 -0.91023791 29
-1.7783592 3.3265872 -0.9080438 22
-1.7515827 3.3254251 -0.90463084 27
-1.7253349 3.3249211 -0.90146166 29
-1.7009259 3.3276742 -0.89926761 14
-1.6804757 3.3380482 -0.89926761 9
-1.6552207 3.3387401 -0.89658594 22
-1.6321492 3.343605 -0.89512324 17
-1.6090804 3.3483129 -0.89366055 16
-1.5847704 3.3502338 -0.8914665 28
-1.5617263 3.3546202 -0.8900038 30
-1.5386883 3.3588502 -0.8885411 25
-1.514062 3.3593876 -0.88610321 14
-1.4887006 3.3579767 -0.88317782 18
-1.4641894 3.3581593 -0.88073999 19
-1.4393498 3.3572764 -0.87805837 21
-1.4198537 3.3687255 -0.87878972 16
-1.3987855 3.3764784 -0.87854594 19
-1.3776754 3.3840995 -0.87830216 28
-1.3601291 3.4005923 -0.8804962 20
-1.3403026 3.4115815 -0.88122755 15
-1.3141037 3.4061706 -0.87757081 19
-1.2918038 3.4105422 -0.87659568 22
-1.2640879 3.4002256 -0.87171996 13
-1.2395415 3.397897 -0.86903834 24
-1.218015 3.4036129 -0.86855078 24
-1.1971078 3.4110222 -0.86855078 10
-1.1723657 3.4072998 -0.86562538 19
-1.1526775 3.4181046 -0.86660051 15
-1.1313782 3.4241924 -0.86635673 21
-1.1106454 3.4319925 -0.86660051 13
-1.0878067 3.4331961 -0.86513782 11
-1.066433 3.43888 -0.86489403 16
-1.0436212 3.439791 -0.86343127 17
-1.0200098 3.4377625 -0.86123723 15
-0.99511039 3.4309175 -0.85782427 15
-0.97112781 3.4266958 -0.85514265 28
-0.94775259 3.4241786 -0.85294855 12
-0.92495149 3.4233763 -0.85124207 12
-0.90318602 3.4261742 -0.85051072 26
-0.8831135 3.4354084 -0.85148585 16
-0.86012959 3.4332368 -0.84953558 22
-0.83927768 3.4393921 -0.84977937 19
-0.81815821 3.4444771 -0.84977937 19
-0.79504007 3.4409285 -0.84758532 18
-0.7745505 3.4485807 -0.84831667 16
-0.75254768 3.4494784 -0.84734154 12
-0.73016065 3.4483385 -0.84587884 14
-0.7064482 3.4404047 -0.84270966 7
-0.68741012 3.455137 -0.84539127 19
-0.66619688 3.4592898 -0.84539127 28
-0.64549214 3.4661725 -0.84612262 19
-0.62369591 3.4672046 -0.84539127 15
-0.60124665 3.4642777 -0.84368479 14
-0 0 -0 18
-0.55838054 3.4694803 -0.84319723 17
-0.53544772 3.4622989 -0.84051555 21
-0.51405072 3.4645598 -0.84027177 21
-0.49155197 3.4590075 -0.83807772 15
-0.46992603 3.4590757 -0.83734637 18
-0.44719294 3.4503529 -0.83442098 7
-0.42601356 3.453032 -0.83442098 15
-0.40549713 3.4613602 -0.83588368 10
-0.38403648 3.4618554 -0.83539611 11
-0.36299038 3.4660757 -0.83588368 25
-0.34238404 3.4749935 -0.83759016 12
-0.32132393 3.4799259 -0.83832151 22
-0.29971474 3.4789333 -0.83759016 11
-0.27844042 3.4816737 -0.83783394 13
-0.25671351 3.4784808 -0.83661503 17
-0.23529935 3.4790227 -0.83637124 12
-0.21400785 3.481369 -0.83661503 11
-0.19215755 3.4739017 -0.83442098 26
-0.17098232 3.4779212 -0.83515233 18
-0.14963897 3.478905 -0.83515233 17
-0.12792943 3.4700661 -0.8327145 14
-0.10645445 3.4649694 -0.8312518 15
-0.084877707 3.4529536 -0.82808256 10
-0.063907713 3.4650452 -0.83100802 19
-0.042645395 3.4653721 -0.83100802 15
-0.021387778 3.4665384 -0.8312518 20
-0.00011565629 3.4627252 -0.83027661 21
0.021136818 3.4636304 -0.83052039 22
0.042411942 3.4653749 -0.83100802 15
0.063621812 3.4621406 -0.83027661 18
0.084910788 3.463624 -0.83076417 21
0.10610281 3.4610991 -0.83027661 20
0.12719637 3.4565063 -0.82930148 27
0.14844398 3.4566295 -0.82954526 24
0.16932006 3.448873 -0.82783878 14
0.19047877 3.4477692 -0.82783878 19
0.21168941 3.4475036 -0.82808256 19
0.23322921 3.4519455 -0.82954526 23
0.25468951 3.4543183 -0.83052039 17
0.27626461 3.4575245 -0.83173937 20
0.29772294 3.4586632 -0.83247072 26
0.31911683 3.4587028 -0.83295828 34
0.34071183 3.4605403 -0.83393341 18
0.36244202 3.4632077 -0.83515233 26
0.38304579 3.4551349 -0.83368963 25
0.40412644 3.451756 -0.83344585 26
0.42458826 3.4434359 -0.83198315 20
0.44570878 3.4407659 -0.83198315 16
0.4665522 3.4360442 -0.83149558 17
0.48708236 3.429276 -0.83052039 20
0.50839871 3.4281414 -0.83100802 18
0.53016299 3.42975 -0.83222693 12
0.55150497 3.4283473 -0.8327145 12
0.57364762 3.4315953 -0.83442098 13
0.59369999 3.4222772 -0.83295828 37
0.61503017 3.4204791 -0.83344585 25
0.63618338 3.4175944 -0.83368963 35
0.65787345 3.4174361 -0.83466476 26
0.67939657 3.416189 -0.83539611 28
0.70053983 3.4129059 -0.83563989 14
0.72146785 3.4085433 -0.83563989 15
0.74319398 3.4078429 -0.83661503 22
0.76599938 3.4117355 -0.83880907 30
0.78800869 3.4116964 -0.84002799 33
0.80982262 3.4105718 -0.84100312 32
0.83119327 3.407423 -0.84149069 34
0.85043806 3.3956728 -0.8397842 28
0.87101644 3.3894513 -0.83954042 25
0.8895759 3.375602 -0.83734637 15
0.91178691 3.3756983 -0.83880907 23
0.93377423 3.3747141 -0.84002799 15
0.95789617 3.3810525 -0.84319723 17
0.98051232 3.3816323 -0.84490371 14
1.0062019 3.3922901 -0.8492918 18
1.0284035 3.3906932 -0.85051072 25
1.0489022 3.3833928 -0.85026693 16
1.0705202 3.379667 -0.85099828 19
1.0879569 3.3628836 -0.84831667 18
1.1097862 3.3598287 -0.8492918 22
1.1291426 3.3492796 -0.84831667 14
1.1503025 3.3441226 -0.84880424 16
1.1724039 3.3415778 -0.85002315 28
1.1876632 3.3197091 -0.84612262 11
1.2179698 3.3396962 -0.85343611 27
1.2394515 3.3348877 -0.85416752 19
1.2640084 3.338105 -0.85709292 17
1.2851642 3.3320961 -0.85758048 21
1.3087736 3.3322732 -0.85977453 16
1.3338726 3.3358881 -0.86294371 16
1.3568732 3.3339295 -0.86465019 29
1.3787874 3.3291259 -0.86562538 18
1.4006938 3.3241785 -0.86660051 18
1.4210643 3.3155215 -0.86660051 19
1.4452535 3.3156312 -0.86903834 21
1.466356 3.3084743 -0.86952591 30
1.4894156 3.3056052 -0.87123239 12
1.5124952 3.3025773 -0.87293887 20
1.5351846 3.298511 -0.87440157 19
1.5562236 3.2907829 -0.87488914 29
1.5797439 3.2881665 -0.87683946 21
1.6020153 3.2827702 -0.87805837 21
1.6251405 3.2789624 -0.87976485 18
1.6439221 3.2663295 -0.87903351 21
1.663933 3.2561812 -0.87903351 28
1.6870055 3.2519374 -0.88073999 16
1.7091852 3.2458162 -0.8819589 18
1.7331808 3.2429671 -0.88415295 25
1.7609023 3.2467668 -0.88829732 20
1.7863988 3.2460985 -0.89122272 25
1.8124256 3.2460864 -0.89439189 22
1.8351754 3.2399685 -0.89585459 35
1.8584012 3.2345347 -0.89756107 18
1.880653 3.2272613 -0.89878005 17
1.9043651 3.2223415 -0.90073031 16
1.9270909 3.2155883 -0.90219301 15
1.955846 3.2186246 -0.9065811 21
1.9816597 3.2164736 -0.9095065 14
2.0090611 3.2165945 -0.9131633 33
2.0318711 3.2091238 -0.914626 28
2.0530944 3.1990452 -0.91535735 31
2.0742705 3.188827 -0.9160887 16
2.0953984 3.1784689 -0.91682005 30
2.1180925 3.1703916 -0.91828275 16
2.1385927 3.158942 -0.91877031 24
2.1628709 3.1529596 -0.92096436 35
2.1854959 3.1444085 -0.92242712 30
2.2120042 3.1412499 -0.9255963 15
2.2329259 3.1299872 -0.92632765 25
2.2520893 3.1162274 -0.92632765 16
2.2780395 3.1117427 -0.92925304 17
2.3005543 3.1023815 -0.93071574 25
2.3230402 3.0928609 -0.93217844 25
2.3472564 3.0854971 -0.93437254 22
2.3714697 3.0779524 -0.93656659 22
2.3980641 3.0732856 -0.93973577 23
2.4222858 3.0653634 -0.94192982 15
2.454375 3.0671058 -0.9472931 12
2.4786415 3.0587714 -0.94948715 19
2.5108924 3.0600033 -0.95485038 11
2.538295 3.054985 -0.9582634 17
2.5694747 3.054199 -0.96313906 12
2.5963395 3.0479758 -0.96630824 18
2.6219578 3.0400681 -0.96898991 16
2.6399243 3.0231922 -0.96874613 13
2.6558559 3.0040298 -0.96777099 29
2.6774712 2.9912913 -0.96898991 15
2.698379 2.9776816 -0.96996504 26
2.7224979 2.9675021 -0.97215909 23
2.7505519 2.9614034 -0.97581583 13
2.7832823 2.9600186 -0.98117912 21
2.812088 2.9541273 -0.98507965 26
2.8389072 2.9458978 -0.98824883 30
2.8664081 2.9381447 -0.99166185 29
2.8884702 2.9246428 -0.99312454 25
2.9200714 2.9205849 -0.9980002 17
2.9337986 2.8985219 -0.99653751 35
2.959161 2.8879189 -0.99921912 25
2.993578 2.8858666 -1.00507 15
3.0182505 2.8741341 -1.0075078 16
3.0443039 2.8635364 -1.0104332 25
3.0731819 2.8553684 -1.0143337 24
3.0999305 2.8449852 -1.017503 20
3.1252306 2.8330781 -1.0201846 34
3.1497786 2.8203201 -1.0226225 29
3.1815505 2.8137944 -1.0274981 19
3.2009463 2.7961345 -1.0282295 37
3.225384 2.7827787 -1.0306673 32
3.2556822 2.7742617 -1.0350554 41
3.2830293 2.7629786 -1.0384684 34
3.3125973 2.7533243 -1.0426128 36
3.3481655 2.7483349 -1.0487074 34
3.3747578 2.7356813 -1.0518765 36
3.4126749 2.7318988 -1.0587025 31
3.432416 2.7133141 -1.0596776 36
3.460465 2.7011564 -1.0633345 32
3.4800458 2.6822414 -1.0643096 38
3.5026112 2.6655381 -1.0662599 41
3.5266526 2.6498241 -1.0686977 35
3.5521903 2.6350713 -1.0716231 37
3.5839379 2.6246903 -1.0764987 25
3.608619 2.6089029 -1.0791804 30
3.639555 2.5974197 -1.0838122 27
3.6609728 2.5789502 -1.0855188 45
3.6870778 2.5636384 -1.088688 39
3.7227261 2.5546906 -1.0947826 28
3.7616143 2.5475776 -1.1018523 26
3.7965236 2.5373874 -1.1077031 47
3.826592 2.5236592 -1.1120913 33
3.8712633 2.5191824 -1.1208675 24
3.9005194 2.5042925 -1.1250118 24
3.9174502 2.4813504 -1.1254994 36
3.9564497 2.4721763 -1.1325692 22
3.9773226 2.451417 -1.1342757 35
4.0038896 2.4340224 -1.1376886 35
4.0478573 2.4268706 -1.146221 21
4.0651765 2.4034691 -1.1469524 30
4.0999527 2.3902082 -1.1528032 31
4.14817 2.3843467 -1.1625546 26
4.1694713 2.3626759 -1.1645049 41
4.2092872 2.3512425 -1.1718184 31
4.2542152 2.342217 -1.1805947 19
4.2847009 2.3248613 -1.1852266 52
4.3134227 2.3063045 -1.1893709 31
4.3420777 2.2874825 -1.1935152 37
4.372385 2.2692893 -1.1981471 36
4.4043584 2.2516932 -1.2032666 40
4.4388785 2.2350988 -1.2091174 52
4.4785724 2.2207518 -1.2164309 40
4.5182567 2.206001 -1.2237445 57
4.5474391 2.1858025 -1.2281326 55
4.5888157 2.171138 -1.2359337 52
4.6275444 2.154819 -1.2430034 56
4.6574292 2.134064 -1.2476354 60
4.6845808 2.1118269 -1.2515359 47
4.6903586 2.0798962 -1.2495856 32
4.7456985 2.0696967 -1.2612872 62
4.777916 2.0489523 -1.2666506 58
4.8154182 2.0301518 -1.2734765 68
4.8555565 2.0120823 -1.2810338 55
4.897449 1.9943281 -1.2890787 60
4.9411063 1.9768561 -1.2976111 45
4.9729996 1.9543091 -1.3029743 48
5.033752 1.9426247 -1.3161387 45
5.0646205 1.9189216 -1.3212582 56
5.1153836 1.9023541 -1.3317409 41
5.1552005 1.8812433 -1.3392982 49
5.175777 1.8528469 -1.3417361 59
5.2401185 1.8396984 -1.3558755 40
5.2824845 1.8182495 -1.3641642 46
5.3266215 1.7969699 -1.3729404 52
5.3706951 1.7752166 -1.3817167 52
5.4036293 1.7494029 -1.3875675 52
5.4309015 1.7214922 -1.3919556 62
5.4728537 1.6979134 -1.4002442 52
5.5314226 1.6789579 -1.4129211 53
5.575089 1.6549283 -1.4216973 44
5.5907264 1.6223118 -1.42316 36
5.6416273 1.5996259 -1.4338865 66
5.6747012 1.5714548 -1.4399811 61
5.7057691 1.5424311 -1.4455881 70
5.7676373 1.5212536 -1.4592401 76
5.8153706 1.4957477 -1.4692352 74
5.8517184 1.466881 -1.476305 68
5.9067726 1.4422289 -1.4882504 68
5.9702339 1.4189758 -1.5023899 72
5.993001 1.385596 -1.5060467 66
6.0486994 1.3594397 -1.5182359 90
6.0938783 1.3303742 -1.5277435 84
6.1398754 1.3010064 -1.5374949 56
6.2066393 1.2754226 -1.5526094 70
6.2581 1.246035 -1.5638236 70
6.2732458 1.2090822 -1.5657738 89
6.3291688 1.179639 -1.5782068 80
6.3706484 1.1469743 -1.5869831 64
6.4434948 1.1193281 -1.6038041 51
6.5028486 1.0885866 -1.6172123 66
6.5869594 1.0611734 -1.6369588 55
6.5981388 1.0214794 -1.6381778 80
6.637857 0.98596781 -1.6467102 81
6.6831474 0.95082772 -1.6567054 73
6.7215285 0.91425258 -1.664994 69
6.7597108 0.87724209 -1.6732827 107
6.8313785 0.84396493 -1.6901038 103
6.8759193 0.80667233 -1.700099 95
6.9867663 0.77626526 -1.7269152 119
7.0386596 0.73834622 -1.7388606 101
7.0604296 0.69686145 -1.7432488 95
7.119617 0.65862751 -1.7571445 85
7.1757002 0.61944258 -1.7703089 120
7.2219019 0.57881767 -1.7810353 119
7.3201003 0.54152095 -1.8049262 133
7.3736005 0.50001544 -1.817603 124
7.4220247 0.45757446 -1.8290608 130
7.4702044 0.41455793 -1.8405187 130
7.4832625 0.36924124 -1.8432003 182
7.497983 0.32386386 -1.8463695 233
7.485292 0.27731016 -1.8427128 270
7.466496 0.23074378 -1.8375933 276
7.4367461 0.18415275 -1.8297921 257
7.429009 0.13835436 -1.8275981 259
7.4209905 0.092657864 -1.825404 244
7.4039626 0.047008194 -1.821016 250
7.3885946 0.0015716925 -1.8171154 238
7.3913746 -0.043780673 -1.8178468 151
7.5277028 -0.090759844 -1.8522203 81
7.6162143 -0.1385565 -1.8746485 80
7.7228403 -0.18788807 -1.9017086 97
8.4117432 -0.25619653 -2.0752831 94
8.46138 -0.30967808 -2.0882034 97
8.545557 -0.36526451 -2.1099002 102
8.6196804 -0.4214232 -2.1291592 84
8.6750345 -0.4774949 -2.1437864 83
8.7116308 -0.53313851 -2.1537814 98
8.8368921 -0.59523368 -2.1862049 73
8.8804684 -0.65292299 -2.1981502 83
8.9768391 -0.71539986 -2.2235038 104
9.0805044 -0.77974647 -2.2508078 90
9.1808167 -0.84512556 -2.2773802 93
9.2391605 -0.90769237 -2.2934699 94
9.3009396 -0.97140932 -2.3105347 99
9.3536053 -1.0349594 -2.3254056 98
9.4684534 -1.1065015 -2.3561225 74
9.5750694 -1.1785445 -2.3848889 80
9.6253681 -1.2447298 -2.3995161 76
9.6857843 -1.3130081 -2.4168248 61
9.8263826 -1.3935033 -2.4546113 78
9.878089 -1.4627134 -2.4699697 75
9.9666939 -1.5383754 -2.4948356 62
10.128472 -1.6270151 -2.5384731 56
10.219699 -1.7060474 -2.5643141 67
10.302689 -1.7849362 -2.5882051 79
10.35359 -1.8592539 -2.6040511 69
10.518387 -1.9555227 -2.6491511 55
10.55 -2.0284438 -2.6603653 62
10.624872 -2.1105137 -2.6827934 63
10.835943 -2.2216125 -2.7403264 97
10.927432 -2.3103156 -2.7673864 68
10.988861 -2.3938279 -2.7868893 69
11.070493 -2.4828475 -2.8117552 86
11.22232 -2.5893037 -2.8549051 111
11.356264 -2.6936882 -2.8936667 74
11.439404 -2.7876475 -2.919508 74
11.534986 -2.8860219 -2.9487619 64
11.699302 -3.0035124 -2.9960563 72
11.78851 -3.1036267 -3.0240915 84
11.963072 -3.2281849 -3.0745547 60
12.105693 -3.3464756 -3.1169732 83
12.20438 -3.4544902 -3.1481776 75
12.362744 -3.5813758 -3.1952279 91
12.694821 -3.7621233 -3.2881098 40
12.780094 -3.8728447 -3.3166325 44
12.883938 -3.9907775 -3.3502748 54
12.878626 -4.0759001 -3.3553941 48
12.977035 -4.1948066 -3.3880613 50
13.033941 -4.301702 -3.410002 67
13.099213 -4.4125481 -3.4343803 58
13.203967 -4.5382228 -3.4694853 59
13.305837 -4.6647058 -3.5041027 59
13.321714 -4.7622538 -3.5160482 68
13.538277 -4.9335403 -3.5818698 81
13.740501 -5.1029348 -3.6442785 49
13.823226 -5.2303848 -3.6749954 57
14.03612 -5.4096022 -3.741061 45
14.181421 -5.5657654 -3.7893302 44
14.38657 -5.7483773 -3.8541768 44
14.548676 -5.9169097 -3.9078095 53
14.637557 -6.0579801 -3.9419391 25
11.199007 -4.7158704 -3.0143399 68
15.11486 -6.4738493 -4.0930853 46
15.321152 -6.6737351 -4.1606135 45
15.559247 -6.8913145 -4.2374058 31
15.703267 -7.0706577 -4.2888441 23
15.977066 -7.3121524 -4.3766065 38
16.244083 -7.5552225 -4.46315 30
16.440313 -7.7695217 -4.5306783 38
16.617029 -7.9781146 -4.5933309 37
16.881582 -8.2329464 -4.6810932 26
17.187077 -8.5128393 -4.7810445 48
17.257553 -8.6800098 -4.8156619 29
17.756767 -9.0679979 -4.971684 36
17.854916 -9.2566729 -5.0153213 29
18.254381 -9.6063051 -5.1450148 20
18.379023 -9.8163548 -5.1974282 19
18.359373 -9.9511223 -5.2091298 15
18.458584 -10.15191 -5.2552052 18
18.385782 -10.259308 -5.2522798 11
18.678659 -10.573524 -5.3551569 20
18.871637 -10.83618 -5.4299984 31
19.018505 -11.07622 -5.4921637 34
19.031187 -11.240543 -5.5158105 37
19.094151 -11.436332 -5.5545721 39
19.236662 -11.682645 -5.6172247 28
19.443758 -11.972317 -5.6996241 31
19.398726 -12.109369 -5.7081561 44
19.409292 -12.282099 -5.73351 17
19.658476 -12.609343 -5.8305359 8
19.984863 -12.992427 -5.9516969 21
20.165546 -13.286611 -6.0301952 26
20.343361 -13.583494 -6.1086941 13
20.326303 -13.753169 -6.1289282 17
20.364719 -13.962078 -6.166471 40
20.125731 -13.980544 -6.1196642 34
19.810356 -13.942467 -6.0492105 43
19.598873 -13.974242 -6.0104489 39
19.425491 -14.031206 -5.9833889 35
19.257629 -14.090579 -5.9580355 35
6.3765316 -4.7269483 -1.9550973 52
6.3474078 -4.7659845 -1.9550973 43
6.3041477 -4.7942767 -1.9507092 55
18.315876 -14.104529 -5.7708087 30
18.101269 -14.117051 -5.7300968 60
17.883396 -14.12447 -5.6881661 65
17.684298 -14.144286 -5.6520858 56
17.487141 -14.163416 -5.6164932 52
17.279169 -14.171437 -5.5772443 61
17.029234 -14.142129 -5.5240993 97
16.779572 -14.109667 -5.4707103 84
16.628433 -14.157664 -5.449501 79
16.36862 -14.110627 -5.3922119 24
16.198431 -14.138102 -5.3644204 67
16.006721 -14.144755 -5.3293157 83
15.81193 -14.14636 -5.2929916 86
15.657261 -14.181917 -5.2700758 88
15.449142 -14.166953 -5.2288766 83
15.194176 -14.105767 -5.1713433 43
15.086137 -14.178807 -5.1640296 55
14.894862 -14.172173 -5.1279497 38
14.750343 -14.208131 -5.1079593 27
14.503871 -14.143326 -5.0521326 51
14.313973 -14.130541 -5.0158091 94
14.10969 -14.10088 -4.974122 60
13.826543 -13.988552 -4.9039121 59
13.677437 -14.008595 -4.8812399 71
13.533994 -14.032923 -4.8605185 64
13.359327 -14.023018 -4.8283391 53
13.196594 -14.023507 -4.8003035 58
13.016533 -14.003353 -4.7656865 64
12.87264 -14.020095 -4.7442331 60
12.7147 -14.019797 -4.7174172 63
12.571488 -14.033983 -4.6959639 61
12.434367 -14.053479 -4.6767049 89
12.356199 -14.139003 -4.6798744 73
12.318644 -14.271815 -4.6988893 56
12.334034 -14.468164 -4.7388701 66
12.311243 -14.622209 -4.7647114 69
12.290124 -14.780243 -4.7917714 71
12.28353 -14.958052 -4.8251696 62
12.269106 -15.128799 -4.8561301 49
12.266989 -15.317341 -4.8926978 66
12.264822 -15.508702 -4.929997 63
12.239276 -15.673094 -4.9585195 61
12.240599 -15.874616 -4.998744 51
12.223454 -16.055134 -5.0321426 55
12.236607 -16.278671 -5.078949 50
12.209322 -16.451571 -5.1096659 43
12.186106 -16.632568 -5.1428204 59
12.141231 -16.786392 -5.1674428 42
12.164809 -17.03816 -5.2222943 53
12.147757 -17.236937 -5.2605686 56
12.151981 -17.469578 -5.3090816 51
12.110986 -17.640553 -5.3385792 48
12.129824 -17.902401 -5.3956251 48
12.129725 -18.140953 -5.4453568 49
12.086558 -18.318651 -5.4765611 62
12.079764 -18.555016 -5.5253181 64
12.075763 -18.80014 -5.5765128 48
12.035458 -18.992662 -5.6118617 52
12.048768 -19.274204 -5.6735392 43
12.045326 -19.53433 -5.7286344 58
11.996806 -19.725531 -5.7632518 40
12.011746 -20.025816 -5.8298049 55
11.984933 -20.261909 -5.8773427 49
11.980103 -20.54031 -5.9370699 35
11.983425 -20.838741 -6.0024042 45
11.950047 -21.078922 -6.0506735 46
11.934988 -21.35672 -6.1096692 46
11.889356 -21.585003 -6.1542816 39
12.001473 -22.108425 -6.2832437 48
11.993233 -22.420235 -6.3512592 47
11.943624 -22.660698 -6.398797 65
11.908946 -22.934959 -6.455843 32
11.860747 -23.188917 -6.5070376 13
11.907622 -23.63715 -6.6128397 29
11.83478 -23.855722 -6.6537957 87
0 -0 -0 8
0 -0 -0 8
11.841433 -25.015331 -6.9168386 8
0 -0 -0 10
0 -0 -0 10
10.738941 -23.810152 -6.5255651 49
10.561961 -23.806452 -6.5065498 18
10.41918 -23.878811 -6.5087438 88
0 -0 -0 14
0 -0 -0 22
0 -0 -0 23
0 -0 -0 12
0 -0 -0 8
10.297699 -26.190231 -7.0338554 24
0 -0 -0 7
0 -0 -0 9
10.202519 -27.419706 -7.3139634 37
0 -0 -0 6
0 -0 -0 7
10.086974 -28.715502 -7.610405 25
4.706882 -13.669008 -3.5938153 71
4.6238527 -13.700388 -3.5945466 94
4.5281281 -13.693513 -3.5852828 38
4.4404345 -13.709968 -3.5823574 32
4.33922 -13.683338 -3.568218 197
4.2456899 -13.67914 -3.560173 103
4.153502 -13.678023 -3.5531032 104
4.0551362 -13.654907 -3.5404265 68
3.9680293 -13.668356 -3.5375011 81
3.8787923 -13.673786 -3.5326254 103
3.7901561 -13.680506 -3.5282373 140
3.6980381 -13.673547 -3.5204363 154
3.6078811 -13.672538 -3.5143416 203
3.5169089 -13.66718 -3.5072718 220
3.4228344 -13.648053 -3.4967892 254
3.3351133 -13.652782 -3.4926448 244
3.2131245 -13.512594 -3.4512014 138
3.1113489 -13.450797 -3.4302361 218
3.0711133 -13.657926 -3.478749 135
3.554934 -16.274487 -4.1472054 38
3.5085318 -16.548353 -4.2120523 43
3.4985647 -17.015093 -4.3263869 53
3.9180319 -19.665148 -5.0002069 28
3.8582895 -20.004971 -5.0811434 38
3.8455708 -20.61841 -5.2320457 48
3.8077474 -21.134115 -5.3578382 35
3.770051 -21.686422 -5.4928946 21
0 -0 -0 9
0 -0 -0 8
0.077639215 -0.50855225 -0.089172415 49
0.073233396 -0.50038552 -0.086978354 102
0.073170669 -0.52194846 -0.092341609 152
0.070359305 -0.52527046 -0.093072966 145
0.067134976 -0.52569228 -0.093072966 149
0.064503498 -0.5309068 -0.094291888 147
0.06101837 -0.5293662 -0.093804315 190
0.057769094 -0.52973062 -0.093804315 152
0.054720316 -0.53200418 -0.094291888 191
0.051741224 -0.53522527 -0.095023237 205
0.048456166 -0.53553265 -0.095023237 206
0.045419991 -0.53871858 -0.095754594 203
0.042113621 -0.53898716 -0.095754594 225
0.038877368 -0.54020256 -0.095998377 224
0.03543048 -0.53849578 -0.095510803 224
0.032006007 -0.53676707 -0.095023237 230
0.029897423 -0.55825663 -0.10038649 467
0.026855035 -0.56617868 -0.10233676 545
0.023128508 -0.56051928 -0.10087406 485
0.019580623 -0.55774319 -0.10014271 448
0.016158005 -0.55785286 -0.10014271 470
0.012565658 -0.55115479 -0.098436221 427
0.0094385538 -0.56479675 -0.1018492 350
0.0057031079 -0.54350948 -0.096485943 415
0.0023112949 -0.53480595 -0.094291888 448
-0.00095910562 -0.56487477 -0.1018492 361
-0.0042461795 -0.53382421 -0.094048098 484
-0.0069560437 -0.48626983 -0.082102671 833
-0.0087151853 -0.41834098 -0.065037772 1077
-0.0090315556 -0.32520321 -0.041634481 2405
-0 -0 -0 8
-0 -0 -0 13
-0 -0 -0 9
-0 -0 -0 2
-0 -0 -0 3
-0 -0 -0 1
-0.023442237 -0.33128899 -0.04334097 3171
-0.025261587 -0.32823724 -0.042609617 2821
-0.02642902 -0.31744152 -0.039927989 2543
-0.029039109 -0.32500368 -0.041878264 2049
-0.031565417 -0.33061391 -0.04334097 1412
-0.035771575 -0.35261348 -0.048948009 713
-0 -0 -0 7
-0 -0 -0 7
-0 -0 -0 7
-0 -0 -0 8
-0 -0 -0 7
-0 -0 -0 7
-0 -0 -0 5
-0 -0 -0 6
-0 -0 -0 4
-0 -0 -0 5
-0 -0 -0 5
-0 -0 -0 5
-0 -0 -0 4
-0 -0 -0 4
-0 -0 -0 3
-0 -0 -0 4
-0 -0 -0 1
-0 -0 -0 2
-0 -0 -0 1
-0 -0 -0 1
-0 -0 -0 1
-0 -0 -0 1
-0 -0 -0 3
-0 -0 -0 1
-0 -0 -0 1
-0 -0 -0 1
-0 -0 -0 1
-0 -0 -0 1
-0 -0 -0 1
-0 -0 -0 1
-0 -0 -0 1
-0 -0 -0 1
-0 -0 -0 1
-0 -0 -0 1
-0 -0 -0 2
-0 -0 -0 2
-0 -0 -0 2
-0 -0 -0 3
-0 -0 -0 2
-0 -0 -0 4
-0 -0 -0 3
-0 -0 -0 4
-0 -0 -0 6
-0 -0 -0 3
-0 -0 -0 6
-0 -0 -0 6
-0 -0 -0 4
-0 -0 -0 3
-0 -0 -0 5
-0 -0 -0 5
-0 -0 -0 4
-0 -0 -0 7
-0 -0 -0 5
-0 -0 -0 5
-0 -0 -0 6
-0 -0 -0 4
-0 -0 -0 6
-0 -0 -0 3
-0 -0 -0 7
-0 -0 -0 6
-0 -0 -0 4
-0 -0 -0 4
-0 -0 -0 4
-0 -0 -0 3
-0 -0 -0 3
-0 -0 -0 3
-0 -0 -0 3
-0 -0 -0 3
-0 -0 -0 2
-0 -0 -0 4
-0 -0 -0 2
-0 -0 -0 4
-0 -0 -0 4
-0 -0 -0 4
-0 -0 -0 2
-0 -0 -0 5
-0 -0 -0 3
-0 -0 -0 3
-0 -0 -0 3
-0 -0 -0 2
-0 -0 -0 7
-0 -0 -0 3
-0 -0 -0 4
-0 -0 -0 3
-0 -0 -0 4
-0 -0 -0 4
-0 -0 -0 4
-0 -0 -0 4
-0 -0 -0 3
-0 -0 -0 4
-0 -0 -0 4
-0 -0 -0 5
-0 -0 -0 5
-0 -0 -0 3
-0 -0 -0 5
-0 -0 -0 5
-0 -0 -0 6
-0 -0 -0 8
-0 -0 -0 4
-0 -0 -0 5
-0 -0 -0 7
-0 -0 -0 5
-0 -0 -0 6
-0 -0 -0 5
-0 -0 -0 6
-0 -0 -0 4
-0 -0 -0 3
-0 -0 -0 6
-0 -0 -0 7
-0 -0 -0 7
-0 -0 -0 8
-0 -0 -0 5
-0 -0 -0 6
-0 -0 -0 6
-0 -0 -0 6
-0 -0 -0 6
-0 -0 -0 6
-0 -0 -0 6
-0 -0 -0 6
-0 -0 -0 6
-0 -0 -0 6
-0 -0 -0 5
-0 -0 -0 4
-0 -0 -0 5
-0 -0 -0 5
-0 -0 -0 4
-0 -0 -0 5
-0 -0 -0 5
-0 -0 -0 3
-0 -0 -0 5
-0 -0 -0 4
-0 -0 -0 2
-0 -0 -0 1
-0 -0 -0 4
-0 -0 -0 1
-0 -0 -0 6
-0 -0 -0 1
-0 -0 -0 1
-0 -0 -0 1
-0 -0 -0 1
-0 -0 -0 1
-0 -0 -0 1
-0 -0 -0 1
-0 -0 -0 1
-0 -0 -0 1
-0 -0 -0 1
-0 -0 -0 1
-0 -0 -0 1
-0 -0 -0 1
-0 -0 -0 1
-0 -0 -0 1
-0 -0 -0 1
-0 -0 -0 1
-0 -0 -0 1
-0 -0 -0 1
-0 -0 -0 1
-0 -0 -0 1
-0 -0 -0 1
-0 -0 -0 1
-0 -0 -0 1
-0 -0 -0 1
-0 -0 -0 1
-0 -0 -0 1
-0 -0 -0 1
-0 -0 -0 1
-0 -0 -0 2
-0 -0 -0 2
-0 -0 -0 2
-0 -0 -0 2
-0 -0 -0 4
-0 -0 -0 4
-0 -0 -0 4
-0 -0 -0 3
-0 -0 -0 4
-0 -0 -0 4
-0 -0 -0 6
-0 -0 -0 8
-0 -0 -0 5
-0 -0 -0 4
-0 -0 -0 5
-0 -0 -0 8
-0 -0 -0 6
-0 -0 -0 4
-0 -0 -0 4
-0 -0 -0 4
-0 -0 -0 7
-0 -0 -0 5
-0 -0 -0 7
-0 -0 -0 6
-0 -0 -0 7
-0 -0 -0 4
-0 -0 -0 5
-0 -0 -0 5
-0 -0 -0 6
-0 -0 -0 6
-0 -0 -0 9
-0 -0 -0 10
-0 -0 -0 6
-0 -0 -0 6
-0 -0 -0 5
-0 -0 -0 6
-0 -0 -0 7
-0 -0 -0 9
-0.86643952 -0.19370528 -0.18302937 13
-0.8856138 -0.19231886 -0.18766126 9
-0.89531571 -0.18869215 -0.18985532 8
-0.90215629 -0.18436739 -0.19131804 9
-0.90897733 -0.17996573 -0.19278073 13
-0 -0 -0 9
-0.9263714 -0.17164357 -0.19668129 15
-0 -0 -0 7
-0 -0 -0 6
-0.86241943 -0.14334255 -0.17961639 25
-0.82594192 -0.13202575 -0.1701088 31
-0 -0 -0 8
-0.44091019 -0.064388521 -0.071863733 85
-0.44225711 -0.061818704 -0.072107516 103
-0.44839382 -0.059889164 -0.073570222 130
-0.44682938 -0.056886788 -0.073082656 205
-0.42984515 -0.052000683 -0.068694539 259
-0.42822975 -0.04913589 -0.068206966 270
-0.41984823 -0.04554211 -0.066012911 558
-0.42011979 -0.04296511 -0.066012911 614
-0.42134061 -0.040481914 -0.066256694 666
-0.42351246 -0.038074844 -0.06674426 696
-0.4227719 -0.035391934 -0.066500477 743
-0.42394781 -0.032874826 -0.06674426 738
-0.51910192 0.037401348 -0.093964249 75
-0.51789749 0.04050811 -0.09371455 34
-0.50895679 0.042932656 -0.091467209 35
-0 0 -0 9
-0 0 -0 8
-0.50037628 0.051482823 -0.089469582 29
-0.50101334 0.054659363 -0.089719281 29
-0 0 -0 5
-0.4993439 0.060684394 -0.089469582 28
-0 0 -0 8
-0.49568328 0.066415019 -0.088720463 21
-0 0 -0 7
-0 0 -0 6
-0 0 -0 7
-0 0 -0 6
-0 0 -0 5
-0 0 -0 7
-0 0 -0 5
-0.69362301 0.12834233 -0.14165772 9
-0 0 -0 7
-0 0 -0 9
-0 0 -0 6
-0 0 -0 7
-6.4360991 1.4063269 -1.6586099 33
-6.3621664 1.4311169 -1.6413802 91
-6.2579865 1.4480623 -1.6161602 140
-6.2150717 1.4783602 -1.6071708 171
-6.1626158 1.505886 -1.5956844 128
-6.1288414 1.5375401 -1.5891922 140
-6.0939736 1.5685951 -1.58245 154
-6.0458493 1.595818 -1.5722122 116
-5.9686475 1.6146655 -1.5542336 121
-5.9371662 1.6453063 -1.5484903 96
-5.8869047 1.670332 -1.5377531 125
-5.8477192 1.6980455 -1.5300122 132
-5.7935653 1.720927 -1.5182761 131
-5.7551026 1.7479954 -1.510785 130
-5.7193012 1.7755188 -1.504043 102
-5.6759958 1.8003253 -1.4953034 99
-5.6178646 1.81989 -1.4825685 98
-5.5845294 1.8470244 -1.4765756 112
-5.5565782 1.8756778 -1.4720809 118
-5.5165849 1.8999565 -1.4643401 113
-5.473763 1.9228518 -1.4558501 109
-5.3980536 1.933532 -1.4383708 119
-5.3515267 1.9539899 -1.4288821 126
-5.3339915 1.9847622 -1.4273839 92
-5.2809711 2.0019989 -1.4161472 89
-5.2387805 2.0228481 -1.407907 114
-5.2091494 2.0482185 -1.4031626 104
-5.1677189 2.0686214 -1.395172 69
-5.1298218 2.0900555 -1.3881804 84
-5.092752 2.1114738 -1.3814384 93
-5.0377707 2.1249857 -1.3697022 76
-4.9988337 2.144779 -1.3624609 103
-4.9625058 2.1653371 -1.3559685 111
-4.9172649 2.1816018 -1.3469791 96
-4.8843689 2.2029698 -1.3414856 89
-4.8549175 2.2256312 -1.336991 87
-4.840292 2.2549694 -1.3367413 74
-4.7511039 2.2489805 -1.3152667 125
-4.7223811 2.2709529 -1.3110218 126
-4.6970482 2.2943585 -1.3077756 101
-4.6403818 2.3020401 -1.2955401 120
-4.6131992 2.3239319 -1.2917945 118
-4.574717 2.3398426 -1.2848029 120
-4.5396509 2.3571544 -1.2788099 146
-4.4976935 2.3705108 -1.2708194 125
-4.4719653 2.3921235 -1.2675732 136
-4.4393339 2.4098127 -1.2623295 133
-4.3939338 2.420181 -1.2533401 106
-4.3764658 2.4456785 -1.252591 154
-4.3310556 2.4552872 -1.2436017 137
-4.2856932 2.4644313 -1.2346123 134
-4.2688184 2.4897053 -1.234113 137
-4.2309613 2.5025361 -1.227371 99
-4.2030725 2.5209756 -1.2236254 111
-4.1602268 2.5301068 -1.2153851 125
-4.1149559 2.5372827 -1.2063957 125
-4.0746808 2.5470798 -1.1989046 125
-4.0458908 2.5637376 -1.1949095 109
-4.0007577 2.5696685 -1.18592 116
-3.9670649 2.5825415 -1.1804266 108
-3.9349813 2.5961649 -1.1754324 96
-3.9061003 2.6116462 -1.1714373 101
-3.8803837 2.6290443 -1.1684408 103
-3.8601882 2.6500633 -1.1671922 101
-3.8311386 2.6648488 -1.163197 80
-3.7988875 2.6771462 -1.1582029 84
-3.7603271 2.6846457 -1.1512111 81
-3.7500594 2.7122092 -1.1532089 60
-3.7153845 2.7220013 -1.1474656 64
-3.6830637 2.7332022 -1.1424716 44
-3.6515198 2.7446914 -1.1377271 46
-3.6161225 2.7529631 -1.1317343 50
-3.588429 2.7668188 -1.1282384 46
-3.5614648 2.7810349 -1.1249923 33
-3.5359807 2.796226 -1.1222456 55
-3.5081773 2.8093932 -1.1187496 67
-3.4765861 2.8192742 -1.1140053 46
-3.4435101 2.8276441 -1.1087615 47
-3.4126959 2.8375728 -1.1042669 30
-3.3863335 2.8509731 -1.1012704 23
-3.3577254 2.862272 -1.0975249 36
-3.3291063 2.8733275 -1.0937792 45
-3.2961047 2.8803158 -1.0885354 36
-3.2674935 2.8908587 -1.0847899 45
-3.2410409 2.9030981 -1.0817934 38
-3.2145612 2.915122 -1.078797 29
-3.1894827 2.9282405 -1.0763 26
-3.1551464 2.9325888 -1.0705568 47
-3.1258125 2.941273 -1.0665616 42
-3.0992951 2.9523804 -1.063565 36
-3.0650942 2.9558773 -1.0578219 61
-3.0434361 2.9712455 -1.0565734 63
-2.9989836 2.9639907 -1.0470846 29
-2.973213 2.9748006 -1.0443379 33
-2.9481027 2.9860952 -1.0418408 51
-2.9182351 2.9923398 -1.0375959 51
-2.8924317 3.0025163 -1.034849 26
-2.8659463 3.0117874 -1.0318526 35
-2.8394566 3.0208468 -1.0288562 36
-2.8116462 3.0282753 -1.0253603 45
-2.7838523 3.0354764 -1.0218645 38
-2.7560761 3.0424511 -1.0183686 35
-2.7244465 3.0448687 -1.0133746 55
-2.6986609 3.053545 -1.0106279 46
-2.6690521 3.0576415 -1.0063828 55
-2.638231 3.0600233 -1.0016384 57
-2.6137571 3.0695167 -0.99939114 44
-2.5830362 3.0714126 -0.99464673 46
-2.5585754 3.0804982 -0.99239939 33
-2.539012 3.0953906 -0.99214971 28
-2.5138783 3.1033852 -0.98965269 24
-2.4947889 3.1187515 -0.98965269 25
-2.4690056 3.1256404 -0.98690593 27
-2.4402554 3.1285119 -0.98291069 23
-2.412154 3.131916 -0.97916508 15
-2.3782437 3.1273842 -0.9729225 12
-2.3607531 3.1442413 -0.97367162 32
-2.3344991 3.1493306 -0.97067517 36
-2.3065569 3.1518714 -0.96692961 20
-2.2928421 3.173816 -0.96942663 9
-2.2626472 3.1728423 -0.96468228 19
-2.2425792 3.1858737 -0.96443254 16
-2.2191229 3.1940062 -0.96268463 18
-2.1836092 3.1843982 -0.9554432 48
-2.1683688 3.2041535 -0.95744085 39
-2.1459799 3.213371 -0.95619231 22
-2.1182339 3.2143474 -0.95244676 23
-2.087919 3.2110448 -0.94745266 17
-2.0608606 3.212383 -0.94395685 22
-2.0405934 3.2241495 -0.94370711 36
-2.0141084 3.2259297 -0.94046098 30
-1.9851413 3.2233834 -0.93596631 24
-1.9663304 3.2371588 -0.93646574 29
-1.9464306 3.2491632 -0.93646574 30
-1.9230117 3.255208 -0.93471777 36
-1.8986177 3.2594142 -0.93247044 39
-1.8819565 3.2768815 -0.93421835 25
-1.8584768 3.2824678 -0.93247044 27
-1.8349994 3.2878895 -0.93072253 32
-1.8077941 3.2863584 -0.92697698 29
-1.7839054 3.2905777 -0.92497933 29
-1.7618573 3.2980444 -0.92398053 24
-1.7357279 3.2976518 -0.92073435 26
-1.7132338 3.303941 -0.91948581 17
-1.6889672 3.3066287 -0.91723847 17
-1.6664718 3.312604 -0.91599 23
-1.6431077 3.3166921 -0.91424203 20
-1.6184834 3.3180072 -0.91174501 16
-1.5934862 3.3182724 -0.90899825 27
-1.5685468 3.318356 -0.90625155 36
-1.5412176 3.3129902 -0.90200657 20
-1.5176383 3.31534 -0.90000892 14
-1.4948832 3.3192914 -0.89851069 15
-1.4725287 3.3239739 -0.89726216 14
-1.4513324 3.331171 -0.89676279 18
-1.4278172 3.3328917 -0.89476514 34
-1.406589 3.3398049 -0.89426571 29
-1.3853297 3.3465831 -0.89376634 33
-1.3633111 3.3514321 -0.89276749 20
-1.3430805 3.3606334 -0.89301723 23
-1.31996 3.3625007 -0.89126927 25
-1.2958232 3.3615003 -0.88877225 19
-1.2738032 3.3657651 -0.88777339 29
-1.2490847 3.3626237 -0.88477695 29
-1.2264407 3.3647654 -0.88327873 27
-1.2057717 3.3722272 -0.88327873 26
-1.1828166 3.3731651 -0.88153082 27
-1.1614679 3.3785276 -0.88103139 22
-1.1397892 3.3828375 -0.88028228 26
-1.1181014 3.3870084 -0.87953317 25
-1.0958101 3.3891981 -0.87828469 19
-1.073826 3.3921649 -0.87728584 34
-1.0527055 3.3977649 -0.87703615 23
-1.0309956 3.4013798 -0.87628704 25
-1.0090061 3.403928 -0.87528825 25
-0.98594755 3.4026139 -0.8732906 15
-0.96215272 3.3983498 -0.87054384 19
-0.93973619 3.3985891 -0.86904562 15
-0.91584086 3.3930719 -0.86604917 22
-0.8915562 3.3855169 -0.8625533 23
-0.87052572 3.3899856 -0.86230361 21
-0.84876972 3.3915055 -0.86130482 14
-0.82679886 3.3919454 -0.86005628 19
-0.80641711 3.398839 -0.86055571 15
-0.78402501 3.3971181 -0.85880774 10
-0.76549399 3.4122589 -0.8615545 14
-0.74618912 3.4244611 -0.86355215 12
-0.72416282 3.424238 -0.86230361 19
-0.70488638 3.4371545 -0.86455095 25
-0.68397152 3.4423649 -0.86480063 16
-0.66247159 3.4445949 -0.86430126 17
-0.64079332 3.4457388 -0.86355215 24
-0.61929685 3.4476995 -0.86305273 28
-0.59648025 3.4418929 -0.86055571 22
-0.57534993 3.445488 -0.86055571 30
-0.55251163 3.4384363 -0.85780895 19
-0.52933931 3.4283633 -0.85431308 12
-0.50900108 3.4363363 -0.85556161 24
-0.48709247 3.4336421 -0.85406339 17
-0.46510631 3.4298491 -0.85231543 19
-0.44417632 3.4335988 -0.85256517 9
-0.42215571 3.4285707 -0.85056752 19
-0.40234366 3.4416764 -0.85331428 18
-0.38015628 3.4344556 -0.8508172 16
-0.35927629 3.4386497 -0.85131663 17
-0.338076 3.4398258 -0.85106695 17
-0.31643242 3.4360497 -0.84956872 21
-0.29583859 3.4437156 -0.85106695 11
-0.27454951 3.4435353 -0.85056752 22
-0.25306168 3.4403265 -0.84931898 12
-0.23246571 3.4495437 -0.85131663 12
-0.21141303 3.4528382 -0.85181606 22
-0.190117 3.4521365 -0.85131663 19
-0.16944835 3.4638772 -0.85406339 16
-0.14790386 3.4580796 -0.85231543 16
-0.12520793 3.4182792 -0.84182787 11
-0.10496078 3.4431801 -0.8480705 18
-0.083529793 3.4311748 -0.84482431 16
-0.062250081 3.4190364 -0.84157819 21
-0.041406352 3.4309731 -0.84457463 10
-0.020293972 3.4205112 -0.84182787 17
0.00068952027 3.4118564 -0.83958054 21
0.02171484 3.4253442 -0.84307641 17
0.04275677 3.427083 -0.84357584 25
0.063692391 3.4219153 -0.8423273 17
0.08495488 3.4321084 -0.84507406 18
0.10586115 3.4266832 -0.84382552 15
0.12688489 3.4259691 -0.84382552 20
0.14794596 3.4260936 -0.8440752 17
0.16867705 3.4193184 -0.84257698 19
0.18943852 3.4143519 -0.84157819 25
0.2102053 3.4102259 -0.84082907 19
0.2313236 3.4117701 -0.84157819 16
0.25246876 3.4131835 -0.8423273 20
0.27379534 3.4163961 -0.84357584 19
0.29492 3.4165812 -0.8440752 19
0.31578866 3.413743 -0.84382552 24
0.33691993 3.4136684 -0.84432495 20
0.35796082 3.4124999 -0.84457463 19
0.378142 3.4035027 -0.84282666 16
0.40037629 3.4126587 -0.84582317 27
0.42047501 3.4034109 -0.8440752 13
0.44097519 3.397886 -0.84332609 22
0.46247011 3.3999135 -0.84457463 16
0.48250255 3.3912601 -0.84307641 21
0.50415748 3.3939824 -0.84457463 18
0.52497309 3.390825 -0.84457463 21
0.54576892 3.3875401 -0.84457463 28
0.56782585 3.3917673 -0.84657228 21
0.58829451 3.3863113 -0.84607285 25
0.60923338 3.3835909 -0.84632254 30
0.62998325 3.3797891 -0.84632254 20
0.6512602 3.3787122 -0.84707165 23
0.67311585 3.3803501 -0.84856987 14
0.69482088 3.3808985 -0.84981841 21
0.71675903 3.3822548 -0.85131663 24
0.73749864 3.3777933 -0.85131663 14
0.76054996 3.3835959 -0.85406339 16
0.78260779 3.3845258 -0.85556161 26
0.79999632 3.36553 -0.85181606 13
0.8240822 3.3746669 -0.85556161 29
0.84241533 3.3601553 -0.85306454 20
0.86374164 3.3577361 -0.85381365 16
0.88210231 3.3439474 -0.85156631 13
0.90412205 3.34408 -0.85306454 12
0.92902309 3.3543322 -0.85730952 25
0.95090985 3.3532262 -0.85855806 19
0.97308815 3.3529074 -0.86005628 19
0.99640197 3.3561554 -0.8625533 25
1.0155683 3.3453462 -0.86130482 19
1.0375121 3.3436754 -0.8625533 18
1.0588878 3.3400152 -0.86330241 26
1.0769731 3.326086 -0.86130482 16
1.0973612 3.3194153 -0.86130482 23
1.1198773 3.3190413 -0.86305273 22
0 0 -0 18
1.161165 3.3068757 -0.86355215 27
1.1824138 3.3024235 -0.86430126 15
1.1989995 3.2851014 -0.8615545 10
1.2272431 3.2994616 -0.86754739 23
1.250556 3.3000176 -0.86979473 26
1.2728748 3.2977018 -0.87129295 29
1.2973396 3.3006425 -0.87428939 16
1.3244083 3.3096991 -0.8790338 9
1.3439602 3.2997172 -0.87853438 16
1.3645526 3.2923031 -0.87878406 24
1.3877404 3.2910051 -0.88078171 16
1.4075255 3.2815385 -0.88053203 25
1.4280216 3.2737277 -0.88078171 25
1.4531895 3.2764094 -0.88402784 16
1.4732658 3.267431 -0.88402784 25
1.4969201 3.2662511 -0.88627517 23
1.5230699 3.2701695 -0.89002079 20
1.5455935 3.2660134 -0.89151901 21
1.5685433 3.2625763 -0.89326692 27
1.5919341 3.2598503 -0.89526457 29
1.6106147 3.2474189 -0.89451545 20
1.6318176 3.2400694 -0.89526457 28
1.6521087 3.2308576 -0.89551425 31
1.6745803 3.2258153 -0.89701247 17
1.6966004 3.2197621 -0.89826101 25
1.71998 3.2161214 -0.9002586 25
1.744303 3.2140164 -0.90275568 23
1.7686647 3.2117336 -0.9052527 19
1.7911736 3.2058918 -0.90675092 38
1.8127218 3.1982102 -0.90774977 29
1.8342432 3.1903846 -0.90874857 31
1.8567128 3.1840878 -0.91024679 38
1.8806535 3.1801353 -0.91249412 23
1.9046155 3.1760085 -0.91474146 30
1.9326243 3.1783249 -0.91898644 25
1.9612414 3.1812406 -0.92348111 23
1.9884262 3.1814613 -0.92722666 33
2.0125763 3.1765611 -0.929474 23
2.0330765 3.1657815 -0.92997342 26
2.0561624 3.158927 -0.93172133 15
2.0776403 3.1494834 -0.93272012 16
2.0996182 3.1407003 -0.93396866 25
2.122653 3.1333687 -0.93571663 26
2.1467733 3.1274691 -0.93796396 23
2.1697946 3.1198013 -0.93971187 19
2.1928024 3.1119685 -0.94145977 28
2.2152328 3.1031828 -0.942958 26
2.237638 3.094239 -0.94445622 29
2.2605891 3.0859175 -0.94620419 31
2.2829449 3.0766535 -0.94770241 26
2.307018 3.0695527 -0.94994974 37
2.3293295 3.0599611 -0.95144796 30
2.3510187 3.0494444 -0.9526965 35
2.3756468 3.042592 -0.95519352 35
2.3984771 3.0332737 -0.95694143 37
2.422493 3.025301 -0.95918876 29
2.4483316 3.0194032 -0.9621852 25
2.4711151 3.0095608 -0.96393317 25
2.4975855 3.004019 -0.9671793 40
2.5253284 2.9997463 -0.97092485 39
2.5487139 2.9900887 -0.9729225 25
2.5746074 2.9831884 -0.97591895 28
2.6024239 2.9782696 -0.9796645 19
2.6245003 2.9665956 -0.98116273 14
2.6491163 2.9576471 -0.9836598 21
2.6691661 2.9434881 -0.98440892 26
2.6976578 2.9384649 -0.98840415 35
2.7275069 2.9346206 -0.99289882 31
2.754091 2.926995 -0.99614495 27
2.7893689 2.9282656 -1.0026373 53
2.8066115 2.9103985 -1.0023875 33
2.8257699 2.8945079 -1.002887 37
2.8455195 2.8791804 -1.0036361 28
2.8672428 2.8657725 -1.0051343 22
2.884773 2.8481255 -1.0051343 37
2.9119024 2.8398335 -1.0086302 42
2.9292724 2.821913 -1.0086302 52
2.9767039 2.8325806 -1.0193675 21
3.0123777 2.8315005 -1.0258597 17
3.0254359 2.8090117 -1.0243615 58
3.0561776 2.8028266 -1.0291059 33
3.0848033 2.7944198 -1.0331012 32
3.111275 2.7838304 -1.0363474 39
3.1370068 2.7723799 -1.0393438 42
3.1641741 2.7619915 -1.0428396 44
3.189131 2.7494774 -1.0455863 41
3.2170029 2.7392709 -1.0493319 51
3.241163 2.7257106 -1.051829 41
3.2570815 2.7051535 -1.0515792 75
3.3035731 2.7096729 -1.0615674 60
3.3284159 2.6960537 -1.0643141 64
3.3622916 2.6894872 -1.0700574 59
3.390131 2.6778059 -1.0738029 55
3.406498 2.6569541 -1.0738029 75
3.4426873 2.6513586 -1.0802952 52
3.4704552 2.6389732 -1.0840408 51
3.4935529 2.62286 -1.0862881 45
3.5181396 2.6077149 -1.0890349 42
3.5481429 2.5963681 -1.0935296 40
3.5773537 2.5841839 -1.0977745 41
3.6018167 2.568367 -1.1005213 51
3.627012 2.5529039 -1.1035178 47
3.6513574 2.5366759 -1.1062645 49
3.6812313 2.5240765 -1.1107591 31
3.7086809 2.5095785 -1.1145047 55
3.7473669 2.5023634 -1.1217461 42
3.7836771 2.49317 -1.1282384 43
3.8143308 2.4799314 -1.1329829 48
3.8498552 2.4695458 -1.1392254 46
3.8780293 2.4541588 -1.1432207 51
3.9094455 2.4405689 -1.1482147 50
3.9358923 2.4236403 -1.1517106 47
3.9597948 2.4049716 -1.1544573 49
3.988601 2.3890846 -1.1587024 41
4.0006833 2.3630893 -1.1579531 68
4.0477457 2.3574951 -1.1676917 48
4.0764122 2.3408082 -1.1719366 60
4.1185102 2.3314867 -1.1801769 47
4.1437325 2.3123035 -1.183423 52
4.1773596 2.2975628 -1.1891662 56
4.2084069 2.2811124 -1.1941603 36
4.247097 2.2684712 -1.2014017 41
4.2797904 2.2522852 -1.2068952 48
4.3107252 2.2348921 -1.2118893 48
4.349369 2.2211657 -1.2191306 51
4.380219 2.2031345 -1.2241248 56
4.4144826 2.1865265 -1.2301177 39
4.4478359 2.1691563 -1.2358608 43
4.4802685 2.1510398 -1.2413543 43
4.5038896 2.1284714 -1.2443508 56
4.5361829 2.1097753 -1.2498443 54
4.5886693 2.1000261 -1.261081 56
4.6217785 2.08097 -1.2668241 47
4.6503983 2.0596268 -1.2713188 52
4.6815934 2.0391698 -1.2765626 39
4.7153821 2.0195503 -1.2825556 60
4.7517834 2.0007193 -1.2892976 63
4.7809715 1.9785565 -1.2940419 57
4.8172426 1.9590273 -1.3007839 82
4.8678417 1.9448721 -1.3115212 76
4.9067278 1.9255732 -1.3190123 60
4.9428487 1.9048259 -1.3257543 57
4.9743695 1.8819952 -1.3312478 59
5.0030727 1.8578385 -1.3359922 75
5.021657 1.8297557 -1.3379898 98
5.0756488 1.8142178 -1.349726 80
5.1168427 1.793604 -1.3579662 82
5.1634688 1.7744396 -1.3677046 84
5.1788483 1.7442682 -1.3689531 113
5.2133636 1.7203429 -1.3754455 94
5.2551508 1.6984401 -1.3839353 93
5.3171763 1.6825116 -1.3979188 74
5.3449755 1.6552933 -1.4026631 102
5.3828349 1.6308835 -1.4101543 110
5.4298801 1.60882 -1.4201424 93
5.4842968 1.5883937 -1.4321282 77
5.5284157 1.5644615 -1.4413673 77
5.5827136 1.5428826 -1.453353 92
5.6219935 1.5166633 -1.4613436 90
5.6489873 1.4868182 -1.4660881 91
5.7086544 1.4651173 -1.4795721 94
5.7654476 1.4420354 -1.4923069 101
5.7864184 1.4096092 -1.4955531 112
5.8383017 1.3843461 -1.5070394 99
5.8797116 1.3561074 -1.5157791 96
5.9153242 1.3261423 -1.5230205 100
5.9621439 1.2982612 -1.5332584 108
6.0116849 1.2704552 -1.5442454 124
6.0373912 1.2372344 -1.5489898 120
6.1389012 1.2188172 -1.5737104 113
6.1500678 1.1818569 -1.5747093 126
6.1857657 1.1494002 -1.5822004 119
6.2251081 1.1172333 -1.5906904 116
6.2938662 1.0897423 -1.6069211 103
6.322403 1.0547643 -1.6126642 106
6.4100251 1.0289818 -1.6338891 88
6.4324875 0.99213761 -1.6381341 111
6.4863501 0.95972794 -1.6506193 116
6.5419726 0.92696571 -1.6636039 97
6.5964761 0.89342695 -1.6763388 115
6.6536937 0.85962576 -1.6898228 103
6.707859 0.82480168 -1.7025577 125
6.7368393 0.78643024 -1.7088003 109
6.7829242 0.74964583 -1.7195376 120
6.8943019 0.71914554 -1.7472547 124
6.9188228 0.67881149 -1.7524985 107
6.9681783 0.64050376 -1.7642347 141
7.0395131 0.60351449 -1.781714 143
7.1038966 0.56513733 -1.7974453 122
7.1535859 0.52493197 -1.8094311 109
7.212709 0.48478577 -1.8239139 132
7.2725735 0.4439925 -1.8386464 131
7.325438 0.40211228 -1.851631 160
7.3732252 0.35936499 -1.8633671 151
7.4033475 0.31530744 -1.8706086 153
7.4680424 0.27215779 -1.8868393 242
7.4502139 0.22574611 -1.8818452 325
7.4388742 0.17972614 -1.878599 348
7.4204736 0.13373277 -1.873605 309
7.4085674 0.088051476 -1.8703588 344
7.3925071 0.042499676 -1.8661139 341
7.3771353 -0.0028522445 -1.8621186 273
7.4457283 -0.048576787 -1.8798476 121
7.5014482 -0.094981834 -1.8943304 145
7.6672459 -0.14416456 -1.9372796 122
8.0156708 -0.19997652 -2.0274227 96
8.1565666 -0.25359994 -2.0641291 123
8.2545252 -0.30736834 -2.0898488 122
8.2960167 -0.35990611 -2.1010854 147
8.4058399 -0.41637549 -2.1300511 161
8.5085096 -0.47382808 -2.1572688 111
8.5073748 -0.52614617 -2.1577682 122
8.5870695 -0.58399832 -2.1792428 127
8.673131 -0.64335036 -2.2024653 143
8.7124538 -0.70005137 -2.213702 126
8.8150768 -0.76277703 -2.2414191 125
8.8584394 -0.82132715 -2.2539043 136
8.9312849 -0.88339651 -2.2741303 114
9.0624437 -0.9525727 -2.3095882 133
9.1045456 -1.0135237 -2.3220735 140
9.2058649 -1.0820428 -2.3500404 103
9.2672815 -1.1469616 -2.3677692 101
9.3935404 -1.2211711 -2.4024782 95
9.4501534 -1.2875522 -2.4192083 115
9.5312271 -1.3582284 -2.4424307 85
9.5974197 -1.4278086 -2.4619076 86
9.7205257 -1.5071604 -2.496367 101
9.7971296 -1.5806674 -2.5188403 83
9.9047089 -1.6604575 -2.5495539 95
9.9468031 -1.730334 -2.5632875 112
10.089421 -1.8190125 -2.6034899 88
10.141846 -1.8927958 -2.6202202 87
10.222264 -1.9727983 -2.6444414 87
10.431227 -2.0796206 -2.7026224 80
10.471382 -2.1545203 -2.7166059 87
10.580156 -2.2446687 -2.7488177 89
10.672132 -2.332715 -2.7767847 97
10.771924 -2.423888 -2.8069987 94
10.869108 -2.5159354 -2.8367136 105
11.002301 -2.6180115 -2.8761668 102
11.046229 -2.7001929 -2.8921478 95
11.221984 -2.8162584 -2.9433372 84
11.272945 -2.9026957 -2.9615655 78
11.333564 -2.992584 -2.9825406 76
11.5094 -3.1147017 -3.0344791 82
11.66083 -3.232619 -3.0801749 79
11.757214 -3.3371694 -3.111388 77
11.878784 -3.4505887 -3.1495926 92
12.004042 -3.5670035 -3.1890459 64
12.261724 -3.7256331 -3.2644565 44
12.422653 -3.8579671 -3.3141477 43
12.515038 -3.9710293 -3.3456104 52
12.570576 -4.0737233 -3.3673346 41
12.618886 -4.175118 -3.387311 65
12.674679 -4.2800469 -3.4095347 98
12.71684 -4.3813996 -3.4282625 68
12.807562 -4.5007701 -3.4604743 92
12.948339 -4.6397133 -3.5066695 49
13.001483 -4.7489829 -3.5291429 65
13.105496 -4.8783369 -3.5658493 61
13.224703 -5.015326 -3.6070504 59
13.411364 -5.1804829 -3.6672292 52
13.581168 -5.3420892 -3.7231629 38
13.740498 -5.5023704 -3.7765996 41
13.841874 -5.6417756 -3.8143048 56
11.176535 -4.6353474 -3.0799253 30
11.135392 -4.6985664 -3.0764294 28
14.42705 -6.1924148 -4.0083251 46
14.547632 -6.3501744 -4.0530219 53
14.827007 -6.5807567 -4.1429152 46
15.006119 -6.7707891 -4.2050915 42
10.254622 -4.7024417 -2.8689253 23
15.417775 -7.185575 -4.3461747 59
15.506414 -7.3430438 -4.3841295 35
15.940105 -7.6685486 -4.5212169 30
16.083277 -7.8593292 -4.575902 43
16.246384 -8.0629148 -4.6368299 49
16.495787 -8.3132496 -4.7232275 36
16.915981 -8.655612 -4.8598156 36
16.988008 -8.82442 -4.8962727 34
17.035469 -8.9822407 -4.9259872 37
8.8422337 -4.7311463 -2.5458083 25
8.7645359 -4.7589693 -2.5315752 74
17.824713 -9.821949 -5.2079034 29
17.747208 -9.9216833 -5.202909 27
17.938675 -10.173715 -5.2778201 24
18.153727 -10.443434 -5.3604722 17
18.138649 -10.583421 -5.375205 20
18.090034 -10.704382 -5.380199 15
18.367752 -11.021462 -5.4835763 19
0 -0 -0 12
18.511316 -11.418896 -5.5684757 19
18.586214 -11.623148 -5.6126733 16
18.783606 -11.907557 -5.6948261 8
18.834824 -12.102684 -5.7330308 22
18.780493 -12.231236 -5.7392735 11
18.952375 -12.50948 -5.8156829 10
19.122347 -12.790827 -5.8923421 10
19.201405 -13.014956 -5.9415336 16
19.59849 -13.46038 -6.0908566 14
19.641106 -13.667775 -6.1303101 17
19.62414 -13.835464 -6.1515346 24
19.51524 -13.938729 -6.1440434 46
19.313244 -13.974195 -6.1070876 36
19.164658 -14.046638 -6.087111 36
6.3388295 -4.7050986 -1.9954606 114
6.3175788 -4.7497244 -1.9979576 152
6.2829242 -4.7842917 -1.9962097 78
18.246811 -14.075047 -5.9023299 71
18.011311 -14.070492 -5.8536377 91
17.843384 -14.116453 -5.8269196 74
17.60454 -14.103971 -5.7767291 39
17.375551 -14.096416 -5.7295351 85
17.171265 -14.106256 -5.6903315 93
16.956348 -14.104835 -5.6473823 83
16.731735 -14.092577 -5.6009374 107
16.55875 -14.121456 -5.571722 94
16.307627 -14.081028 -5.5157881 44
16.123966 -14.096054 -5.4825778 107
15.922611 -14.093315 -5.4431243 113
15.74642 -14.110612 -5.4121609 93
15.569184 -14.12498 -5.3806982 129
15.366697 -14.114124 -5.3402462 73
15.198969 -14.132972 -5.31178 73
14.998456 -14.119099 -5.2715778 115
14.788876 -14.093947 -5.2278795 120
14.642888 -14.127274 -5.2066545 123
14.464494 -14.12754 -5.1736937 108
14.254291 -14.094151 -5.1289968 43
14.057364 -14.07105 -5.0887942 81
