# .PCD v0.7 - Point Cloud Data file format
VERSION 0.7
FIELDS x y z intensity
SIZE 4 4 4 4
TYPE F F F F
COUNT 1 1 1 1
WIDTH 1510
HEIGHT 1
VIEWPOINT 0 0 0 1 0 0 0
POINTS 1510
DATA ascii
2.9474034 -3.2540812 -0.80704039 68
2.9234536 -3.2677138 -0.80590481 62
2.8805933 -3.2598348 -0.79928046 88
2.8514986 -3.2670908 -0.79663074 97
2.8256288 -3.2778316 -0.79492736 74
2.7997348 -3.2883782 -0.79322392 64
2.7712905 -3.2957244 -0.7907635 57
2.7441163 -3.3043566 -0.78868157 84
2.7119598 -3.3067052 -0.78508544 56
2.704596 -3.3393085 -0.78906006 105
2.6785364 -3.3489387 -0.78735667 91
2.6275108 -3.3267796 -0.7778933 68
2.5907462 -3.3219316 -0.7727831 59
2.5972707 -3.3727772 -0.78130013 111
2.5586996 -3.3651993 -0.77562213 103
2.5344663 -3.3761239 -0.77448654 102
2.5101955 -3.386878 -0.77335095 90
2.484149 -3.3950839 -0.77164751 104
2.459821 -3.4054861 -0.77051193 58
2.4308991 -3.4093215 -0.7678622 67
2.3958075 -3.4040968 -0.76313055 74
2.3810368 -3.4276047 -0.76521248 104
2.3521881 -3.4308112 -0.76256269 71
2.3277917 -3.4402995 -0.7614271 52
2.2968252 -3.4398177 -0.75802034 73
2.2724345 -3.448926 -0.75688469 62
2.2432027 -3.4504552 -0.75404572 67
2.2166882 -3.4558885 -0.75215304 81
2.1933415 -3.4661057 -0.751396 73
2.1683934 -3.4736674 -0.75007111 75
2.1434352 -3.4810538 -0.74874622 78
2.1057277 -3.4672818 -0.74268973 53
2.0798731 -3.4725552 -0.74098629 50
2.0595253 -3.4869425 -0.74136484 71
2.0346324 -3.4935739 -0.74003994 91
2.0077806 -3.4966252 -0.73795801 94
1.9833859 -3.5037515 -0.73682243 87
1.9608933 -3.5141404 -0.73644388 81
1.9359821 -3.520083 -0.73511904 93
1.9096687 -3.5232625 -0.73322636 91
1.8824642 -3.5245197 -0.73095518 73
1.8580595 -3.5307899 -0.72981954 77
1.8336489 -3.5368936 -0.72868395 72
1.808787 -3.5419562 -0.72735912 53
1.7821676 -3.5433381 -0.72527713 51
1.7564709 -3.5462871 -0.72357374 51
1.7359692 -3.5596457 -0.72414154 38
1.7153696 -3.572886 -0.72470933 41
1.6808307 -3.5567093 -0.71903133 76
1.6552495 -3.5589423 -0.71732795 74
1.6256189 -3.5520666 -0.71373188 78
1.601778 -3.5574973 -0.71278554 74
1.5771368 -3.5609736 -0.71146065 84
1.5489849 -3.5561795 -0.70843238 94
1.5186324 -3.5457582 -0.70426852 85
1.4937999 -3.5477695 -0.70275438 63
1.4682492 -3.5477953 -0.70086175 94
1.4475621 -3.5594664 -0.70142955 119
1.4224163 -3.5600746 -0.6997261 104
1.3976763 -3.5614226 -0.69821197 92
1.3740325 -3.5653501 -0.69726568 75
1.3507406 -3.5700402 -0.69650859 74
1.3281263 -3.5764198 -0.69613004 100
1.3044764 -3.5798888 -0.69518375 77
1.2801731 -3.5813527 -0.69385886 97
1.2565506 -3.584507 -0.69291252 97
1.2300661 -3.5791485 -0.69026279 57
1.2071416 -3.583837 -0.689695 52
1.1872823 -3.5977037 -0.69101983 100
1.1609583 -3.59184 -0.68837011 52
1.136528 -3.5914063 -0.68685597 65
1.112147 -3.5908084 -0.68534184 48
1.0903778 -3.5985045 -0.68553114 53
1.0682774 -3.6051271 -0.68553114 67
1.0450442 -3.6078415 -0.68477404 99
1.0210161 -3.6075718 -0.68344921 68
0.99781525 -3.609983 -0.68269211 90
0.97769153 -3.6236219 -0.68420625 112
0.95518911 -3.628603 -0.684017 71
0.93241841 -3.6324935 -0.68363845 69
0.9089213 -3.6333833 -0.68269211 63
0.88521612 -3.6331677 -0.68155652 64
0.86132133 -3.6318426 -0.68023163 56
0.8381381 -3.6332321 -0.67947459 65
0.8147555 -3.6335156 -0.67852825 82
0.79160988 -3.6346085 -0.67777115 76
0.76929343 -3.6393974 -0.67777115 56
0.74635684 -3.6411633 -0.67720336 68
0.72457451 -3.6485639 -0.67777115 59
0.70124745 -3.6481194 -0.67682487 66
0.67813247 -3.6484921 -0.67606777 75
0.65573299 -3.6525843 -0.67606777 75
0.63263893 -3.652669 -0.67531073 73
0.60892242 -3.6487336 -0.67379659 67
0.58543366 -3.6456144 -0.6724717 65
0.56260467 -3.6462266 -0.67190391 63
0.54007757 -3.6486387 -0.67171466 55
0.5178175 -3.6528561 -0.67190391 45
0.49539423 -3.6559646 -0.67190391 50
0.47270077 -3.6569877 -0.67152536 62
0.45013323 -3.6588447 -0.67133611 70
0.42710546 -3.6566613 -0.67038977 61
0.40390578 -3.6523812 -0.66906488 52
0.38118207 -3.651861 -0.66849709 46
0.35857582 -3.6521766 -0.6681186 52
0.33660895 -3.6591971 -0.66906488 48
0.31465325 -3.6670635 -0.67020053 59
0.29300284 -3.6796925 -0.67228246 43
0.27085015 -3.6872969 -0.67341805 42
0.24854931 -3.6937878 -0.67436439 61
0.22558095 -3.6903429 -0.67341805 60
0.2028794 -3.6906772 -0.6732288 46
0.17999113 -3.6869485 -0.67228246 28
0.15678048 -3.6742492 -0.66963273 71
0.13433996 -3.6780858 -0.67020053 53
0.11179884 -3.6798222 -0.67038977 50
0.089288838 -3.6833839 -0.67095757 44
0.066668674 -3.6828806 -0.67076832 58
0.044034757 -3.680275 -0.67020053 63
0.021457804 -3.6814578 -0.67038977 56
-0.0011328205 -3.6844659 -0.67095757 41
-0.023720961 -3.6814437 -0.67038977 53
-0.046309426 -3.6812289 -0.67038977 49
-0.06885919 -3.6789119 -0.67001122 73
-0.09140677 -3.6774385 -0.66982198 51
-0.11393886 -3.675827 -0.66963273 49
-0.13641807 -3.6730962 -0.66925418 64
-0.15878291 -3.6682661 -0.66849709 90
-0.18148234 -3.6711457 -0.66925418 67
-0.20433228 -3.6758454 -0.67038977 66
-0.22700423 -3.6764824 -0.67076832 76
-0.24915864 -3.6691425 -0.66963273 60
-0.27144948 -3.6646068 -0.66906488 67
-0.29424456 -3.6667874 -0.66982198 44
-0.31648403 -3.6619782 -0.66925418 53
-0.33940083 -3.664856 -0.67020053 35
-0.36168826 -3.6607502 -0.66982198 69
-0.38516983 -3.6682274 -0.67171466 40
-0.40777904 -3.6667709 -0.67190391 56
-0.43107259 -3.6710262 -0.6732288 66
-0.45419249 -3.6731846 -0.67417508 58
-0.47722849 -3.6742234 -0.67493218 57
-0.49910137 -3.6663613 -0.67398584 54
-0.52366614 -3.6778116 -0.67682487 64
-0.54680079 -3.6784141 -0.67758191 105
-0.56905997 -3.6730492 -0.67720336 104
-0.5922122 -3.6733658 -0.67796046 86
-0.61571443 -3.6754735 -0.67909604 65
-0.6364041 -3.660985 -0.67701411 78
-0.6579845 -3.6521792 -0.67606777 76
-0.68092185 -3.650969 -0.67663556 83
-0.70498538 -3.6553996 -0.678339 86
-0.72932088 -3.6606348 -0.68023163 105
-0.75453854 -3.6695559 -0.68288136 111
-0.77867043 -3.6725414 -0.68439549 113
-0.80139971 -3.6686537 -0.6845848 94
-0.82195526 -3.6550455 -0.68288136 114
-0.84436667 -3.6499333 -0.68288136 99
-0.86538273 -3.638952 -0.68174577 122
-0.88955969 -3.6412046 -0.6832599 103
-0.91236293 -3.6375825 -0.68363845 105
-0.93686891 -3.6404741 -0.68534184 108
-0.9634499 -3.6507969 -0.68855941 118
-0.98403734 -3.6381817 -0.68723452 77
-1.0084405 -3.6396451 -0.68874866 96
-1.030754 -3.633389 -0.68874866 97
-1.052207 -3.624167 -0.68818086 71
-1.0775009 -3.6279964 -0.69026279 86
-1.1023104 -3.6297724 -0.69196618 92
-1.1321324 -3.6473222 -0.69688714 138
-1.1547877 -3.641243 -0.69707638 167
-1.1746868 -3.6266158 -0.69556224 156
-1.1981508 -3.6230688 -0.69631934 165
-1.2209871 -3.6175094 -0.69669789 134
-1.2479579 -3.6238754 -0.69953686 132
-1.2802608 -3.6448681 -0.70540416 157
-1.3026012 -3.6369441 -0.70540416 147
-1.3272505 -3.6353395 -0.70672899 95
-1.3474766 -3.6216056 -0.70559341 135
-1.3728062 -3.6215327 -0.70729679 111
-1.3907565 -3.6020494 -0.70502561 133
-1.4167852 -3.6034997 -0.70710754 122
-1.4447089 -3.6093237 -0.71013582 146
-1.4720162 -3.6131217 -0.71278554 122
-1.4971673 -3.6112778 -0.71429968 115
-1.5246413 -3.6146891 -0.7169494 158
-1.5487281 -3.6097779 -0.71789575 138
-1.5720265 -3.6029069 -0.71846354 131
-1.5941039 -3.5931933 -0.71846354 120
-1.6217743 -3.5958753 -0.72111326 75
-1.6499468 -3.5992451 -0.72395229 128
-1.6794657 -3.6050742 -0.72735912 127
-1.6927303 -3.5760641 -0.7233845 138
-1.7116613 -3.5594163 -0.72205961 141
-1.7369176 -3.5559049 -0.72357374 176
-1.7643776 -3.5566151 -0.72603422 193
-1.7905859 -3.554491 -0.72792691 199
-1.8208592 -3.5600464 -0.73152298 218
-1.8453845 -3.5540354 -0.73265857 245
-1.871278 -3.550463 -0.73436195 177
-1.8944178 -3.5415115 -0.73492974 187
-1.9231405 -3.5427649 -0.73776877 199
-1.9519497 -3.5437987 -0.74060774 211
-1.9846765 -3.5514686 -0.7449609 211
-2.0088522 -3.5434947 -0.74590725 253
-2.0271299 -3.5251439 -0.74458236 273
-2.057133 -3.5270579 -0.74779993 213
-2.0807359 -3.5177495 -0.74855697 226
-2.1078379 -3.5141783 -0.7506389 174
-2.1451807 -3.5271845 -0.7565062 177
-2.1662672 -3.5131199 -0.7563169 133
-2.1997557 -3.5189109 -0.76067007 227
-2.2207801 -3.504518 -0.76048076 161
-2.24808 -3.499913 -0.76256269 230
-2.2721918 -3.4901674 -0.76350904 213
-2.3060038 -3.4950094 -0.7678622 143
-2.33341 -3.4897726 -0.76994413 166
-2.3547788 -3.4753892 -0.76994413 139
-2.393846 -3.4867778 -0.77600068 233
-2.4123914 -3.4679937 -0.77505434 216
-2.4415455 -3.4643621 -0.77770406 191
-2.465039 -3.4525123 -0.77846116 216
-2.4982631 -3.4540291 -0.78243572 179
-2.5228922 -3.4433873 -0.78357136 163
-2.573236 -3.4672647 -0.79303467 226
-2.5891514 -3.4443467 -0.79133129 170
-2.6155908 -3.435426 -0.79303467 175
-2.6540115 -3.4418609 -0.79852343 162
-2.6926088 -3.447953 -0.80401218 151
-2.7258978 -3.446769 -0.80779749 190
-2.7433121 -3.4253802 -0.8066619 188
-2.7686083 -3.4138212 -0.80798674 165
-2.799475 -3.4089096 -0.81101501 201
-2.8272455 -3.3999724 -0.81309694 161
-2.8588068 -3.395329 -0.81631452 144
-2.8974252 -3.3986449 -0.82161397 195
-2.9201493 -3.3830326 -0.82218176 163
-2.9447296 -3.3694868 -0.82331735 188
-2.9699042 -3.3565023 -0.82464224 145
-3.0101008 -3.3601556 -0.83032024 178
-3.0379186 -3.349623 -0.83240217 133
-3.0677128 -3.3410447 -0.83505189 135
-3.1189108 -3.3552389 -0.84375817 185
-3.1495345 -3.3467636 -0.84659719 154
-3.174752 -3.3323517 -0.84792203 120
-3.2203629 -3.3389571 -0.85492492 136
-3.2606852 -3.3395073 -0.86041367 138
-3.2935407 -3.3320065 -0.86382049 142
-3.3250372 -3.3228395 -0.86684871 153
-3.367028 -3.3237576 -0.87271601 110
-3.3915772 -3.3071482 -0.8738516 109
-3.4167566 -3.2910435 -0.87517649 60
-3.4482687 -3.2808452 -0.87820476 95
-3.4840775 -3.2744181 -0.88236862 79
-3.5134592 -3.2616627 -0.8848291 72
-3.5536718 -3.2586231 -0.89012855 96
-3.5917954 -3.2532349 -0.89486021 44
-3.6394999 -3.256011 -0.90205234 115
-3.6844294 -3.255723 -0.90848744 73
-3.7021172 -3.2311177 -0.90791965 48
-3.7441871 -3.2275727 -0.91359764 71
-3.7691545 -3.2089934 -0.91492254 104
-3.7970412 -3.1927567 -0.91700447 106
-3.8324249 -3.1825709 -0.92097902 103
-3.8663073 -3.1708252 -0.92457509 121
-3.9268978 -3.1804113 -0.9347955 99
-3.9609091 -3.167908 -0.93839157 77
-3.9995382 -3.1587579 -0.94312328 142
-4.0281367 -3.1414034 -0.94539446 109
-4.0590072 -3.1256135 -0.94823349 72
-4.1031232 -3.1196647 -0.95429003 156
-4.1433921 -3.1103444 -0.95940024 69
-4.1836996 -3.100647 -0.96451044 86
-4.2097788 -3.0801356 -0.96621382 90
-4.2469082 -3.0674691 -0.97056693 97
-4.2944341 -3.0618722 -0.97738057 75
-4.3444591 -3.0575023 -0.98476195 139
-4.3623309 -3.0302274 -0.98457271 108
-4.4140487 -3.0261657 -0.99233264 130
-4.4431067 -3.0061769 -0.99479312 156
-4.4843354 -2.9941235 -1.0000926 142
-4.5108228 -2.9719534 -1.0019852 176
-4.5791941 -2.9768622 -1.0135305 101
-4.6180377 -2.9619606 -1.0182621 129
-4.6568704 -2.9466937 -1.0229939 130
-4.6998534 -2.9336605 -1.0286719 156
-4.7420149 -2.9196956 -1.0341606 117
-4.7850199 -2.905833 -1.0398387 97
-4.8322449 -2.894074 -1.0464629 110
-4.875277 -2.879348 -1.052141 120
-4.9310379 -2.8716135 -1.060658 103
-4.961339 -2.8486362 -1.0634969 81
-4.9983792 -2.8292639 -1.0678501 66
-5.0533757 -2.8195901 -1.0761778 69
-5.0998359 -2.8046157 -1.0826129 74
-5.1169486 -2.7732711 -1.0826129 113
-5.1728468 -2.762635 -1.0911299 84
-5.2027354 -2.7377009 -1.0939689 93
-5.2429738 -2.717926 -1.0990791 107
-5.2779174 -2.695081 -1.1030537 109
-5.3452358 -2.6882308 -1.1140312 86
-5.3757091 -2.662354 -1.1170595 116
-5.4334269 -2.6495442 -1.125955 108
-5.4681716 -2.6250784 -1.1299297 127
-5.4983811 -2.5981884 -1.1329579 172
-5.5444927 -2.5784781 -1.139393 155
-5.5869966 -2.5566652 -1.1450709 194
-5.6437669 -2.5408762 -1.1537772 229
-5.692472 -2.5209079 -1.1607801 229
-5.7861567 -2.5200386 -1.1772463 217
-5.8267846 -2.4953098 -1.1825458 219
-5.8781867 -2.4747484 -1.1901165 218
-5.9222956 -2.4506464 -1.196173 244
-5.9990754 -2.4394093 -1.2090431 210
-6.0440221 -2.4145732 -1.215289 229
-6.0797482 -2.3856907 -1.219642 233
-6.1373367 -2.3649328 -1.2285377 231
-6.1820402 -2.3386939 -1.2347834 266
-6.2386189 -2.3164375 -1.2434897 259
-6.3283691 -2.3056734 -1.2590096 244
-6.3664389 -2.2753906 -1.2639306 243
-6.4432945 -2.2583663 -1.2768006 231
-6.4700313 -2.2232552 -1.2794504 241
-6.5589285 -2.2088945 -1.294781 259
-6.6115236 -2.1815283 -1.3027302 234
-6.6724372 -2.1563165 -1.3123828 185
-6.721118 -2.1265888 -1.319575 225
-6.8062658 -2.1076703 -1.3341485 255
-6.8613596 -2.0786774 -1.3426656 257
-6.9398894 -2.0560591 -1.3559142 196
-6.9901018 -2.0243618 -1.3634849 217
-7.0562472 -1.9966694 -1.3742731 235
-7.1166358 -1.9666721 -1.3839257 239
-7.203465 -1.9431674 -1.3988777 226
-7.2579846 -1.9101752 -1.4073948 215
-7.384654 -1.8951333 -1.4302961 61
-1.6662695 -0.41705143 -0.29185611 8
-0 -0 -0 7
-0 -0 -0 9
-1.6602683 -0.38322154 -0.28920639 8
-1.6769608 -0.37624827 -0.29204538 11
-0 -0 -0 6
-1.6545516 -0.34995791 -0.28674591 7
-1.6951456 -0.34768203 -0.29431659 23
-1.7010996 -0.33803892 -0.29507366 45
-1.7108561 -0.32907683 -0.2965878 37
-1.7012581 -0.31642103 -0.29431659 19
-0.69801474 -0.12563579 -0.097479098 10
-0.69586986 -0.12084807 -0.096911296 18
-0.68303859 -0.11431459 -0.094261557 27
-0.69051379 -0.11121049 -0.095586427 17
-0.67565584 -0.10457735 -0.09255816 33
-0.66462851 -0.098705523 -0.090286955 32
-0.67008275 -0.095314145 -0.091233291 31
-0.66870892 -0.090937316 -0.090854757 16
-0.63419616 -0.082304694 -0.084041148 21
-0.64248592 -0.079370141 -0.085555285 18
-0.63808429 -0.074857369 -0.08460895 31
-0.6248678 -0.069431193 -0.081959218 35
-0.63309509 -0.066410445 -0.083473347 26
-0.62274104 -0.061470352 -0.081391416 18
-0.67101908 -0.06205041 -0.090665489 42
-0.70171571 -0.060531016 -0.096532762 52
-0.7079469 -0.056691252 -0.097668365 51
-0.68869555 -0.050909724 -0.093883023 37
-0.69291383 -0.046946283 -0.094640091 53
-0.67554694 -0.041617248 -0.091233291 47
-0.68755502 -0.038116883 -0.093504496 32
-0.59558427 -0.029406626 -0.075713411 48
-0.57318962 -0.024791257 -0.071360275 44
-0.4997353 -0.018593626 -0.057165261 67
-0.47137719 -0.014665265 -0.051676523 104
-0.45378879 -0.011346239 -0.048269723 226
-0.4499228 -0.008490961 -0.047512654 367
-0.45094827 -0.0057417694 -0.047701921 460
-0.450975 -0.0029746948 -0.047701921 481
-0.45098478 -0.00020750824 -0.047701921 499
-0.45097756 0.0025596863 -0.047701921 495
-0.44997153 0.0053143278 -0.047512654 448
-0.4528757 0.0081306435 -0.048080456 484
-0.45035255 -0.010695977 -0.050282862 431
-0.45433217 -0.0080049336 -0.051063221 558
-0.453392 -0.0052049528 -0.050868131 590
-0.45341542 -0.0024228939 -0.050868131 586
-0.45440254 0.00035919226 -0.051063221 579
-0.45537254 0.0031533008 -0.051258311 553
-0.45632532 0.0059593264 -0.0514534 586
-0.45726079 0.008777163 -0.051648494 548
-0.46013981 0.011654713 -0.052233763 560
-0.46103996 0.01450788 -0.052428853 552
-0.46192238 0.01737253 -0.052623942 586
-0.45200825 0.019786015 -0.050673041 489
-0.45579678 0.022751357 -0.0514534 499
-0.45760718 0.025655786 -0.051843584 505
-0.4584201 0.028523207 -0.052038673 508
-0.45921499 0.031401567 -0.052233763 468
-0.46096995 0.034362838 -0.052623942 465
-0.46075043 0.03719065 -0.052623942 418
-0.46051356 0.040017061 -0.052623942 405
-0.46025935 0.042841967 -0.052623942 396
-0.45315531 0.044992771 -0.051258311 303
-0.45677257 0.048180658 -0.052038673 186
-0.44866979 0.050118133 -0.050477952 100
-0.44056076 0.051958017 -0.048917226 61
-0 0 -0 7
-0.43988997 0.057360463 -0.048917226 54
-0.43952975 0.060058497 -0.048917226 45
-0 0 -0 5
-0 0 -0 6
-0 0 -0 9
-0 0 -0 7
-0 0 -0 6
-0 0 -0 6
-1.9733193 0.35515136 -0.35950103 21
-0.26442096 0.049609024 -0.014191151 124
-0.26700088 0.051786665 -0.014776422 189
-0.26186836 0.052467585 -0.01380097 242
-0.27979594 0.057819765 -0.017507685 328
-0.28135496 0.059941608 -0.017897867 457
-0.26660785 0.058532551 -0.014971511 545
-0.25858793 0.058448695 -0.013410789 580
-0 0 -0 5
-0 0 -0 4
-0 0 -0 5
-0 0 -0 3
-0 0 -0 4
-0 0 -0 1
-0 0 -0 3
-0 0 -0 1
-0 0 -0 3
-0 0 -0 2
-0 0 -0 3
-0 0 -0 1
-0 0 -0 1
-0 0 -0 1
-0 0 -0 4
-0 0 -0 2
-0 0 -0 2
-0 0 -0 1
-0 0 -0 3
-0 0 -0 4
-0 0 -0 1
-0 0 -0 2
-0 0 -0 2
-0 0 -0 2
-0 0 -0 3
-0 0 -0 3
-0 0 -0 1
-0 0 -0 1
-0 0 -0 1
-0 0 -0 4
-0 0 -0 4
-0 0 -0 1
-0 0 -0 1
-0 0 -0 2
-0 0 -0 1
-0 0 -0 1
-0 0 -0 1
-0 0 -0 1
-0 0 -0 1
-0 0 -0 3
-0 0 -0 1
-0 0 -0 1
-0 0 -0 4
-0 0 -0 3
-0 0 -0 1
-0 0 -0 1
-0 0 -0 2
-0 0 -0 3
-0 0 -0 4
-0 0 -0 2
-0 0 -0 3
-0 0 -0 3
-0 0 -0 4
-0 0 -0 2
-0 0 -0 2
-0 0 -0 2
-0 0 -0 3
-0 0 -0 1
-0 0 -0 1
-0 0 -0 1
-0 0 -0 1
-0 0 -0 2
-0 0 -0 1
-0 0 -0 3
-0 0 -0 2
-0 0 -0 3
-0 0 -0 3
-0 0 -0 3
-0 0 -0 5
-0 0 -0 4
-0 0 -0 5
-0 0 -0 4
-0 0 -0 6
-0 0 -0 4
-0 0 -0 7
-0 0 -0 7
-0 0 -0 5
-0 0 -0 5
-0 0 -0 7
-0 0 -0 7
-0 0 -0 5
-0 0 -0 4
-0 0 -0 6
-0 0 -0 5
-0 0 -0 5
-0 0 -0 5
-0 0 -0 6
-0 0 -0 5
-0 0 -0 5
-0 0 -0 4
-0 0 -0 5
-0 0 -0 4
-0 0 -0 4
-0 0 -0 3
-0 0 -0 3
-0 0 -0 4
-0 0 -0 2
-0 0 -0 1
-0 0 -0 1
-0 0 -0 2
-0 0 -0 2
-0 0 -0 1
-0 0 -0 1
-0 0 -0 1
-0 0 -0 1
-0 0 -0 1
-0 0 -0 1
-0 0 -0 1
-0 0 -0 1
-0 0 -0 1
-0 0 -0 1
-0 0 -0 1
-0 0 -0 1
-0 0 -0 1
-0 0 -0 1
-0 0 -0 1
-0 0 -0 1
-0 0 -0 1
-0 0 -0 2
-0 0 -0 2
-0 0 -0 2
-0 0 -0 2
-0 0 -0 3
-0 0 -0 4
-0 0 -0 2
-0 0 -0 5
-0 0 -0 5
-0 0 -0 5
-0 0 -0 5
-0 0 -0 6
-0 0 -0 5
-0 0 -0 6
-0 0 -0 6
-0 0 -0 6
-0 0 -0 5
-0 0 -0 5
-0 0 -0 4
-0 0 -0 5
-0 0 -0 5
-0 0 -0 6
-0 0 -0 6
-0 0 -0 4
-0 0 -0 7
-0 0 -0 4
-0 0 -0 4
-0 0 -0 4
-0 0 -0 6
-0 0 -0 3
-0 0 -0 5
-0 0 -0 4
-0 0 -0 4
-0 0 -0 6
-0 0 -0 3
-0 0 -0 6
-0 0 -0 4
-0 0 -0 4
-0 0 -0 7
-0 0 -0 5
-0 0 -0 5
-0 0 -0 5
-0 0 -0 3
-0 0 -0 6
-0 0 -0 5
-0 0 -0 4
-0 0 -0 4
-0 0 -0 4
-0 0 -0 6
-0 0 -0 8
-0 0 -0 5
-0 0 -0 4
-0 0 -0 4
-0 0 -0 5
-0 0 -0 7
-0 0 -0 8
-0 0 -0 6
-0 0 -0 6
-0 0 -0 5
-0 0 -0 5
-0 0 -0 8
-0 0 -0 4
-0 0 -0 6
-0 0 -0 6
-0 0 -0 5
-0 0 -0 6
-0 0 -0 6
-0 0 -0 9
-0 0 -0 9
-0 0 -0 7
-0.05903424 0.30855381 -0.023165306 543
-0.054625671 0.29541141 -0.020434041 877
-0.054027699 0.30249801 -0.021799672 1108
-0 0 -0 1182
-0 0 -0 1314
-0 0 -0 1500
-0 0 -0 1715
-0 0 -0 1757
-0.045617357 0.32370216 -0.02570148 1896
-0.044026475 0.32689154 -0.026286751 1920
-0.042019878 0.32715553 -0.026286751 1999
-0.040011697 0.32740721 -0.026286751 1986
-0.03800201 0.32764655 -0.026286751 1987
-0.035990894 0.32787356 -0.026286751 1985
-0.033058759 0.31930918 -0.024530938 2096
-0.0308103 0.31657785 -0.023945667 2051
-0.030310545 0.332387 -0.027067112 1688
-0 0 -0 2
-0.023961117 0.30438173 -0.021409493 1532
-0.021948585 0.30256677 -0.021019312 1567
-0.019628173 0.29584593 -0.01965368 1503
-0 0 -0 6
-0.016646596 0.30781594 -0.021994764 994
-0.021600394 0.44701561 -0.049697589 504
-0.017718362 0.42068303 -0.044430152 387
-0.014847453 0.41294289 -0.042869426 323
-0.011951609 0.40126234 -0.040528346 340
-0.0096099535 0.40623057 -0.041503794 282
-0.007117189 0.40628189 -0.041503794 278
-0.004660456 0.40926003 -0.042089067 290
-0.0021735246 0.41320398 -0.042869426 300
0.00036201673 0.41124797 -0.042479247 287
0.0029091951 0.41516107 -0.043259609 275
0.0054804641 0.41709685 -0.043649789 257
0.0080935853 0.41999722 -0.044235062 268
0.010382422 0.40817377 -0.041893978 238
0.01303684 0.41300401 -0.042869426 243
0.016111277 0.42761809 -0.045795783 246
0.019197328 0.43828988 -0.047941778 232
0.022751357 0.45579678 -0.0514534 206
0.028251175 0.50461328 -0.061207917 263
0.033149242 0.53379875 -0.067060627 297
0.037679542 0.55217785 -0.070767343 383
0.043445803 0.58421463 -0.077205323 564
0.047966707 0.59566915 -0.079546407 675
0.051957101 0.59927231 -0.080326773 724
0.05554311 0.5979656 -0.08013168 737
0.057289716 0.57809216 -0.07622987 489
0.060427513 0.57382786 -0.075449511 306
0.06394732 0.57344627 -0.075449511 265
0.065982454 0.56037939 -0.072913341 228
0.066899747 0.53952223 -0.068816438 141
0.063910663 0.49046844 -0.059061926 94
0.062169395 0.45507967 -0.052038673 49
0.063995294 0.44789234 -0.050673041 42
0 0 -0 12
0 0 -0 12
4.1936383 26.071844 -5.2133484 26
4.3472281 26.007895 -5.2057395 64
3.4638352 19.968058 -3.9918878 35
4.6643219 25.942936 -5.2037888 30
3.7242262 20.007936 -4.0088606 43
3.8311658 19.902843 -3.9922779 36
3.9495809 19.860683 -3.9885712 50
5.3131938 25.886946 -5.2172499 44
5.4798527 25.891279 -5.2248588 40
5.6446753 25.884958 -5.230516 74
5.8072629 25.867062 -5.2340279 66
5.9713883 25.854832 -5.238905 74
5.104073 21.496817 -4.355536 36
2.6768465 10.973241 -2.2073965 63
2.7574687 11.009889 -2.2183216 74
2.8432784 11.064007 -2.2329533 103
2.871877 10.897451 -2.2023242 122
2.9798596 11.032069 -2.2337337 77
3.0273573 10.940791 -2.2187119 68
3.0671651 10.825757 -2.1988125 149
3.1471882 10.853833 -2.2085671 31
6.1963611 20.890833 -4.2950583 27
3.4449542 11.357828 -2.3215244 149
5.2950168 17.080044 -3.5176232 20
3.6732116 11.596136 -2.3802466 30
5.5872316 17.270401 -3.5712731 36
3.9029016 11.815608 -2.4358473 93
4.0417471 11.98847 -2.4772065 166
4.07727 11.853078 -2.4539907 91
3.9437485 11.240154 -2.3301084 38
4.0298209 11.263765 -2.3402531 58
4.2618265 11.685719 -2.4348719 105
4.3484817 11.699801 -2.4434559 196
4.4014339 11.623368 -2.4329209 68
4.4931402 11.649219 -2.4442363 68
6.1262822 15.598048 -3.2940497 45
7.4624414 18.662882 -3.9587224 35
6.3213 15.531688 -3.2961957 55
4.7056212 11.361462 -2.4067788 93
4.7603931 11.297125 -2.3991704 163
4.8338714 11.277619 -2.4013164 118
4.9112082 11.266627 -2.4054132 79
4.3674617 9.8536167 -2.104584 32
4.4149475 9.7980185 -2.098341 217
4.4578323 9.7332916 -2.0901473 324
4.5240922 9.7199831 -2.0932686 283
5.1991534 10.993638 -2.3796613 95
4.7313714 9.8476171 -2.1338475 64
4.7925663 9.8201637 -2.1342378 120
5.5286756 11.154437 -2.4370179 65
12.607119 25.049261 -5.5387588 27
5.6557693 11.067411 -2.4329209 24
4.8446941 9.3382864 -2.0532751 112
4.9032726 9.3109875 -2.0538604 215
5.9703984 11.170763 -2.4801328 36
6.1113038 11.267553 -2.5103719 61
6.2247739 11.310614 -2.5287104 91
8.5895405 15.383543 -3.4653389 38
5.5520067 9.8013687 -2.2013488 215
5.6037359 9.7526608 -2.1980321 260
5.6812487 9.7486 -2.2050555 191
7.9839535 13.508947 -3.0819864 39
8.0167799 13.376418 -3.0626726 71
7.623508 12.544962 -2.8806531 47
9.3378496 15.15585 -3.5016258 32
9.7777405 15.653951 -3.6319461 36
8.8966837 14.050707 -3.268688 83
8.879961 13.835722 -3.2308404 38
5.6564589 8.6951332 -2.0240116 112
5.6119962 8.5120497 -1.9887003 332
5.6537671 8.4619598 -1.9849936 332
5.7050328 8.4262972 -1.9847986 211
8.7803345 12.798991 -3.0480409 99
9.4072676 13.53413 -3.2392292 47
9.5336161 13.537901 -3.2542512 12
10.161612 14.243248 -3.4409525 32
10.208027 14.12419 -3.4271011 82
9.3657904 12.792704 -3.1143715 49
10.985816 14.814033 -3.6292148 28
9.9149504 13.199878 -3.2444966 44
12.09196 15.894254 -3.9331656 14
7.0472522 9.1459684 -2.2573397 25
11.169278 14.313406 -3.5720534 37
0 0 -0 20
7.1341286 8.9143848 -2.2317829 61
7.2930479 8.9992218 -2.2647531 154
7.3599496 8.968708 -2.2684598 174
7.3214498 8.8109789 -2.2393913 74
12.558631 14.926795 -3.8408878 34
13.301888 15.614738 -4.0408554 31
11.695444 13.559468 -3.5225005 59
11.479088 13.144669 -3.4319785 41
11.897339 13.456075 -3.5334256 19
13.37953 14.946699 -3.9509187 17
9.5061722 10.489245 -2.776475 18
9.8727064 10.760271 -2.8654363 24
12.053778 12.976798 -3.4836774 18
13.238406 14.077964 -3.804601 27
9.7620802 10.254213 -2.7768652 31
9.8200512 10.189178 -2.7754996 44
9.8810158 10.127327 -2.7751093 35
9.9388351 10.062321 -2.7739389 34
10.046852 10.047617 -2.78701 60
10.088778 9.9664812 -2.7815473 38
10.328032 10.078381 -2.8311002 77
10.431338 10.05498 -2.8426106 75
10.538297 10.034071 -2.8550963 97
10.621814 9.9900513 -2.8611443 91
10.698001 9.9387074 -2.8652411 66
12.575438 11.540035 -3.3556981 32
0 0 -0 19
0 0 -0 15
12.186941 10.777073 -3.1966996 60
12.234371 10.685963 -3.1918223 127
12.30268 10.613256 -3.1926026 106
12.32651 10.502582 -3.1818726 56
10.732285 9.0311136 -2.7507231 49
10.503886 8.7293797 -2.6773691 50
10.633821 8.7276125 -2.6970732 34
11.023941 8.9351749 -2.7833033 23
12.756963 10.210849 -3.2109411 73
12.532373 9.9055252 -3.1381724 25
12.627709 9.8555975 -3.1469514 68
12.677068 9.7695475 -3.1442204 78
12.171688 9.2615757 -3.002975 57
12.997524 9.7646503 -3.1943586 75
13.141481 9.7472363 -3.2152331 26
0 0 -0 18
17.780399 12.852952 -4.3247118 10
17.977884 12.828498 -4.3537803 12
12.968597 9.1343107 -3.1159322 68
18.009943 12.520696 -4.3237362 17
18.062168 12.393306 -4.3178835 21
20.123451 13.626853 -4.7948794 20
19.96368 13.340727 -4.7367425 17
19.861753 13.097035 -4.6930423 22
0 0 -0 8
19.846828 12.740517 -4.6518784 10
13.140171 8.3216658 -3.0544786 20
20.556484 12.842632 -4.7820034 21
20.537209 12.656054 -4.7591782 11
20.255768 12.311765 -4.6756792 15
0 0 -0 9
31.235918 18.46483 -7.178298 13
31.35117 18.274305 -7.1788831 85
31.415939 18.054714 -7.1681533 9
0 0 -0 9
31.306318 17.48419 -7.0932384 8
31.111429 17.125755 -7.0247617 24
31.159027 16.903667 -7.0118861 8
31.111658 16.631704 -6.9779401 10
31.068207 16.364162 -6.9453602 17
0 0 -0 7
31.065819 15.879004 -6.9004893 15
30.934021 15.57298 -6.8495708 14
30.915638 15.326681 -6.8244042 10
30.909502 15.088079 -6.8023591 12
30.936083 14.866701 -6.7879224 11
30.960228 14.645146 -6.7732906 13
30.953478 14.410195 -6.7522206 11
0 0 -0 9
19.553061 8.8123322 -4.2267766 48
19.617525 8.6969614 -4.2291174 13
30.777254 13.419249 -6.6392636 12
30.794111 13.202324 -6.625217 12
30.823025 12.991412 -6.6140966 17
30.84598 12.778768 -6.6020012 29
30.841145 12.555606 -6.5842481 9
0 0 -0 9
29.597137 11.62782 -6.285955 16
29.507793 11.384214 -6.2518139 13
29.070801 11.011168 -6.144124 21
28.297571 10.520195 -5.9658117 11
0 0 -0 8
27.325657 9.7788811 -5.733654 18
26.886332 9.4359598 -5.6285005 14
0 0 -0 17
22.372829 7.544776 -4.6571455 14
21.345888 7.0528688 -4.4324017 33
20.440699 6.6149325 -4.23419 28
19.639429 6.2227488 -4.0586085 41
19.279114 5.9786544 -3.9756951 21
19.413044 5.8898635 -3.9959846 37
19.338806 5.7379928 -3.9731591 32
19.049618 5.5252333 -3.9060481 17
18.532087 5.2520552 -3.7921152 25
18.360739 5.0819907 -3.7501707 30
17.998642 4.86306 -3.6692083 41
17.652584 4.6535192 -3.5919526 19
17.314144 4.4508533 -3.5166478 35
17.106138 4.2856536 -3.4684603 27
16.832928 4.1075969 -3.407202 29
16.463717 3.9106154 -3.3266296 26
16.173008 3.736872 -3.262445 33
15.820513 3.553304 -3.1859696 37
15.591916 3.4015949 -3.135051 44
15.384132 3.2575002 -3.0886195 41
15.05028 3.090436 -3.0168264 39
14.865993 2.9576447 -2.9756622 70
14.70569 2.8320558 -2.9395704 60
14.55984 2.7114201 -2.9066002 49
14.325228 2.5768783 -2.8558767 47
14.136873 2.4535387 -2.8147128 49
13.819862 2.3112502 -2.7477968 59
13.724363 2.2087963 -2.7257516 56
13.599054 2.1031044 -2.6978536 57
13.364311 1.9829091 -2.6481056 68
13.115992 1.8638808 -2.5958214 117
12.988207 1.7644831 -2.5679235 101
12.825658 1.6623113 -2.5331974 110
12.668191 1.5629222 -2.4996419 117
12.472003 1.4610771 -2.4584777 97
12.338412 1.3687303 -2.4299946 100
12.220745 1.2798157 -2.4048281 113
12.003875 1.182681 -2.3599572 112
11.881015 1.0970068 -2.3340101 122
11.762445 1.0133064 -2.3090386 136
11.682407 0.93423134 -2.2918706 113
11.541201 0.85169959 -2.2626071 143
11.321143 0.76563936 -2.2177362 145
11.239482 0.69086152 -2.2005684 144
11.049611 0.61115301 -2.1619406 142
10.993397 0.54040283 -2.1500399 129
10.876961 0.46779278 -2.1262391 155
10.721828 0.39522177 -2.0948293 127
7.9448385 0.24395245 -1.5417484 80
7.8726492 0.19338921 -1.5271167 208
7.7864122 0.14346747 -1.5097536 217
7.7106509 0.094744444 -1.4945365 213
7.5943756 0.04670722 -1.4713207 245
7.5552878 0.00010555959 -1.4635172 187
7.4825697 -0.045812238 -1.4490805 268
7.5537395 -0.092597485 -1.463322 302
7.6030407 -0.13986205 -1.4732717 347
7.7108741 -0.18917541 -1.4949267 302
7.7830925 -0.23873647 -1.5095584 199
9.4320087 -0.34717247 -1.8380905 219
9.383646 -0.40306336 -1.8289213 199
9.2614841 -0.45476931 -1.8051203 239
9.1498184 -0.50558633 -1.7834653 206
9.0378809 -0.55505031 -1.7618103 224
8.9795055 -0.6067946 -1.7508852 267
8.8817129 -0.65496004 -1.7321565 241
8.8159332 -0.70452535 -1.7198658 245
8.6609602 -0.74565661 -1.689822 215
8.6288757 -0.79626298 -1.6843594 231
8.538909 -0.84083569 -1.6673865 247
8.437994 -0.88321203 -1.6482677 231
8.3710032 -0.92816341 -1.635977 200
8.2638397 -0.96765137 -1.6156876 234
8.1973953 -1.0108994 -1.603592 238
8.105444 -1.0500938 -1.5864241 249
8.017211 -1.0887258 -1.5700364 230
7.95503 -1.1300381 -1.5589163 243
7.8994374 -1.1716356 -1.5491618 229
7.8135881 -1.20795 -1.5333595 264
7.7101636 -1.2404521 -1.5140456 238
7.6559734 -1.2799767 -1.5046812 212
7.5899944 -1.316872 -1.4929758 235
7.4736567 -1.343982 -1.4711257 285
7.4459848 -1.386225 -1.4672239 234
7.3814783 -1.4211349 -1.4559087 239
7.2908535 -1.4501414 -1.4393259 296
7.2088008 -1.4798645 -1.424499 243
7.160244 -1.5157431 -1.4165003 278
7.1105614 -1.550873 -1.4083066 262
7.023397 -1.5770724 -1.3925043 268
6.9658065 -1.6091026 -1.3827498 279
6.9252658 -1.6445639 -1.3765069 248
6.849298 -1.6709895 -1.3630457 239
6.7922969 -1.7013103 -1.3534862 253
6.7237844 -1.7280661 -1.3415858 291
6.6798601 -1.7605431 -1.3347576 273
6.6168547 -1.7874322 -1.3240275 262
6.5764589 -1.8198915 -1.3179798 257
6.5094934 -1.8444377 -1.3064694 258
6.3850141 -1.8515717 -1.2830586 332
6.3688312 -1.8893201 -1.2820832 278
6.3252072 -1.9186851 -1.2754501 326
6.2945795 -1.9516517 -1.2715483 240
6.1927252 -1.9618081 -1.2528197 322
6.1152487 -1.9786379 -1.2391633 332
6.0741224 -2.0065877 -1.2331154 341
6.0328846 -2.0341077 -1.2270677 327
5.9850469 -2.0589645 -1.2196542 305
5.9463868 -2.0865581 -1.2141917 295
5.8826809 -2.1048357 -1.2034618 324
5.8254266 -2.1247628 -1.1940974 355
5.7690701 -2.1444087 -1.1849282 361
5.7163625 -2.1648328 -1.1765393 308
5.6810098 -2.191397 -1.1718571 329
5.6008143 -2.2000411 -1.1576155 348
5.5680852 -2.2267191 -1.1535187 387
5.5088959 -2.2423573 -1.1437641 369
5.4696608 -2.2656093 -1.1383016 333
5.4303489 -2.2884648 -1.1328391 335
5.3828506 -2.3074462 -1.1256207 329
5.3299298 -2.3235803 -1.1172318 318
5.2904658 -2.3451133 -1.1117693 361
5.2339487 -2.3585949 -1.1026001 343
5.1819258 -2.3735139 -1.0944062 312
5.1370316 -2.3911946 -1.0877732 362
5.1054163 -2.4147036 -1.0840665 315
5.0754752 -2.4387641 -1.08075 321
5.0348539 -2.457387 -1.0750923 272
4.9906812 -2.4738615 -1.0686543 341
4.9438686 -2.4885643 -1.0616311 270
4.8883309 -2.4983234 -1.0526569 283
4.847662 -2.5151732 -1.0469993 284
4.8087063 -2.5325325 -1.0417318 276
4.7671266 -2.5481219 -1.0358791 241
4.741056 -2.5717137 -1.0335381 232
4.6822233 -2.5771127 -1.0237836 299
4.6457701 -2.5943186 -1.0191014 293
4.6041622 -2.6082747 -1.0132487 287
4.5600076 -2.6203525 -1.0068107 291
4.5438437 -2.6482828 -1.0068107 318
4.483602 -2.6501656 -0.99666601 258
4.4546371 -2.670064 -0.99373966 282
4.4172158 -2.6846137 -0.9888624 245
4.3831248 -2.7008631 -0.98476553 238
4.3348594 -2.707963 -0.97735208 227
4.2875018 -2.7150977 -0.97013372 229
4.2641582 -2.7371163 -0.96857303 207
4.2242632 -2.748255 -0.96311051 235
4.1819358 -2.7573881 -0.95706266 233
4.1502585 -2.7731891 -0.95355105 207
4.1193576 -2.7892551 -0.95023453 206
4.0956955 -2.81004 -0.94867378 227
4.0590472 -2.8216836 -0.9439916 206
4.0264211 -2.8358073 -0.94028491 213
3.9977672 -2.8524849 -0.93755364 170
3.9563417 -2.8597264 -0.93170094 193
3.9276409 -2.8758373 -0.92896968 191
3.9036186 -2.8952091 -0.92740893 209
3.8661752 -2.9043813 -0.92253166 187
3.8162775 -2.903702 -0.91453296 188
3.7844043 -2.9162889 -0.91102135 157
3.7656658 -2.9388511 -0.91082627 194
3.7260158 -2.944875 -0.90536374 199
3.7040474 -2.964618 -0.90438831 207
3.6674991 -2.97247 -0.89970613 194
3.6256871 -2.9756305 -0.89365834 183
3.589256 -2.9827783 -0.88897616 172
3.555126 -2.9914858 -0.88487923 151
3.5344636 -3.0113354 -0.88429397 158
3.5040367 -3.0227165 -0.88117254 116
3.4699099 -3.0306125 -0.87707567 151
3.4328794 -3.0356054 -0.8721984 152
3.4098039 -3.0526872 -0.87102783 173
3.3822877 -3.0656486 -0.86868674 157
3.3373964 -3.0624743 -0.86166352 125
3.3041701 -3.069545 -0.85776168 144
3.280272 -3.085058 -0.85639608 167
3.2527561 -3.0970123 -0.85405499 124
3.230161 -3.1135097 -0.85307956 128
3.1948495 -3.1175179 -0.84859246 116
3.1582153 -3.1198325 -0.84371519 123
3.1383195 -3.1384587 -0.8435201 131
3.1093531 -3.1478879 -0.84078884 105
3.0694292 -3.1458492 -0.83493614 126
3.0446234 -3.1589746 -0.83337539 144
3.0211251 -3.1733351 -0.83220488 126
2.9928613 -3.1825249 -0.8296687 141
2.951915 -3.1778359 -0.82342583 145
2.9277186 -3.1908305 -0.82206017 113
2.9074264 -3.2080078 -0.82186508 95
2.880491 -3.2177494 -0.81971908 61
2.8457491 -3.2184651 -0.81523204 52
2.812398 -3.2203536 -0.81113511 90
2.7842565 -3.2278955 -0.80859894 85
2.757401 -3.2367067 -0.80645293 68
2.7299109 -3.2445598 -0.80411184 65
2.7061899 -3.2567234 -0.80294132 76
2.6818004 -3.2679601 -0.80157566 80
2.6493464 -3.2691154 -0.79767388 62
2.6182053 -3.2715275 -0.79416227 52
2.5956495 -3.2844532 -0.79338187 46
2.5706198 -3.2941327 -0.79182118 46
2.5401812 -3.2966373 -0.78850466 65
2.5210934 -3.3137224 -0.78889483 47
2.5060153 -3.3361864 -0.79065061 85
2.491925 -3.3601654 -0.79279661 106
2.4538767 -3.3516531 -0.78694391 94
2.4355636 -3.3698261 -0.78772426 125
2.4045863 -3.3703365 -0.78421265 113
2.3742595 -3.3713961 -0.78089613 102
2.3512888 -3.3826797 -0.78011578 91
2.322165 -3.3849125 -0.77718937 86
2.2964025 -3.3917885 -0.7754336 81
2.2722778 -3.4009223 -0.77426302 88
2.2502875 -3.4131632 -0.77387285 73
2.2207441 -3.413753 -0.77075142 94
2.1949873 -3.4198871 -0.76899558 80
2.1729124 -3.4316335 -0.76860541 85
2.1476579 -3.4382474 -0.76704472 70
2.1198313 -3.440506 -0.76450855 71
2.0925677 -3.4433911 -0.76216745 53
2.0663574 -3.4477537 -0.76021653 65
2.0406713 -3.452769 -0.7584607 53
2.0184593 -3.4635308 -0.75807053 66
1.9917938 -3.4664967 -0.75592458 58
1.9714532 -3.4803596 -0.75631475 63
1.9471916 -3.487253 -0.75514418 97
1.9215008 -3.4914021 -0.7533884 55
1.8972356 -3.4979541 -0.75221783 99
1.8715752 -3.501745 -0.75046206 104
1.8445688 -3.5027494 -0.74812096 99
1.8144584 -3.4974611 -0.74441421 100
1.7844827 -3.4919357 -0.74070752 105
1.7647871 -3.5063236 -0.74148786 89
1.7340909 -3.4986329 -0.737391 99
1.7147423 -3.5136142 -0.73836643 76
1.6838046 -3.5046213 -0.73407441 93
1.6576556 -3.5051346 -0.73192847 127
1.6381871 -3.5196855 -0.7329039 110
1.613292 -3.5225375 -0.73134315 96
1.5839906 -3.5153811 -0.72763646 124
1.5627882 -3.5259306 -0.72783154 102
1.5372041 -3.526463 -0.72588062 96
1.5105129 -3.5241103 -0.72334445 82
1.4842896 -3.5224669 -0.72100341 89
1.4596452 -3.5242591 -0.71944267 128
1.4372536 -3.5313323 -0.71905249 107
1.4108236 -3.5282462 -0.71651632 80
1.3877136 -3.533185 -0.71573597 91
1.364949 -3.5388882 -0.71515065 108
1.343904 -3.5490313 -0.71554089 105
1.3210769 -3.5544524 -0.71495557 86
1.2968893 -3.556042 -0.71358997 95
1.273393 -3.5593152 -0.71261448 119
1.2534784 -3.5726144 -0.71378505 138
1.2222792 -3.5533433 -0.70812744 80
1.1979458 -3.5533412 -0.70656669 60
1.1751972 -3.557831 -0.70598143 59
1.1515328 -3.559376 -0.70481092 55
1.1275973 -3.55983 -0.70344526 66
1.1054429 -3.5657451 -0.70325017 49
1.0818344 -3.5668294 -0.70207965 66
1.0588124 -3.5696394 -0.70129925 69
1.0347037 -3.5685332 -0.69973856 84
1.0095788 -3.5634916 -0.69739747 64
0.98769462 -3.5696189 -0.69739747 62
0.96654075 -3.5784528 -0.69798273 61
0.94581574 -3.5890579 -0.69895816 69
0.92328751 -3.5928938 -0.69856799 65
0.90050942 -3.5956373 -0.69798273 78
0.87703484 -3.5953782 -0.69681221 84
0.8551842 -3.6016459 -0.6970073 72
0.83218551 -3.6030033 -0.69622689 70
0.80963236 -3.6061277 -0.69583672 69
0.78602678 -3.6043198 -0.69447112 72
0.76328671 -3.6061964 -0.6938858 77
0.74075049 -3.6088905 -0.69349563 80
0.71840143 -3.6124058 -0.69330055 68
0.69473863 -3.6090412 -0.69173986 94
0.6725809 -3.6132362 -0.69173986 77
0.65126616 -3.6221213 -0.69271529 115
0.62852573 -3.6231503 -0.69213003 96
0.60337013 -3.6095264 -0.68861842 60
0.58058769 -3.6092875 -0.68783802 66
0.557531 -3.6069663 -0.6866675 59
0.53510064 -3.6083791 -0.68627733 56
0.51281196 -3.6106234 -0.68608224 58
0.49117616 -3.6175895 -0.68686259 56
0.46960029 -3.6253984 -0.68783802 51
0.44830739 -3.6359987 -0.68939877 69
0.42587474 -3.637707 -0.68920368 65
0.40289715 -3.6344028 -0.6880331 49
0.37966964 -3.6280274 -0.68627733 54
0.35711274 -3.6273606 -0.68569201 57
0.33493915 -3.6304603 -0.68588716 58
0.31324625 -3.639287 -0.68725276 54
0.29153582 -3.648962 -0.68881351 60
0.26971847 -3.6585071 -0.6903742 56
0.24713278 -3.6581361 -0.68998402 67
0.22444139 -3.6556678 -0.68920368 67
0.20146443 -3.6471832 -0.68725276 74
0.17898557 -3.6463916 -0.68686259 64
0.15635529 -3.641542 -0.68569201 84
0.13408059 -3.644393 -0.68608224 75
0.11177679 -3.6471076 -0.68647242 76
0.08910685 -3.6359591 -0.68413132 91
0.067012757 -3.6482048 -0.68647242 75
0.044590231 -3.6456051 -0.68588716 68
0.022244707 -3.6497331 -0.6866675 73
-0.00014998973 -3.6507819 -0.68686259 58
-0.02251504 -3.6448276 -0.68569201 67
-0.044902802 -3.6465821 -0.68608224 63
-0.06715104 -3.6393738 -0.68471658 72
-0.089312516 -3.6320298 -0.68335098 70
-0.11165659 -3.633374 -0.68374115 88
-0.13376828 -3.6277199 -0.68276566 66
-0.15631936 -3.6336899 -0.68413132 101
-0.17885263 -3.6375604 -0.68510675 54
-0.20160148 -3.6442289 -0.6866675 67
-0.22401834 -3.6439023 -0.68686259 57
-0.24610834 -3.6385448 -0.68608224 57
-0.26821315 -3.6340318 -0.68549693 63
-0.29074034 -3.6352508 -0.68608224 50
-0.31337669 -3.6373069 -0.68686259 42
-0.33460796 -3.623596 -0.6845215 81
-0.35731596 -3.6263552 -0.68549693 74
-0.37956014 -3.6240942 -0.68549693 86
-0.40308651 -3.633395 -0.68783802 55
-0.42548701 -3.6318274 -0.6880331 67
-0.44860345 -3.6359622 -0.68939877 77
-0.47040099 -3.6292505 -0.68861842 71
-0.49226502 -3.6233802 -0.6880331 80
-0.51683253 -3.6367993 -0.69134969 47
-0.54057628 -3.6432614 -0.69330055 129
-0.56471831 -3.6515074 -0.69564164 84
-0.58804739 -3.6537836 -0.69681221 68
-0.61045545 -3.6501067 -0.69681221 99
-0.6313321 -3.6375949 -0.69505638 75
-0.65364009 -3.6336527 -0.69505638 82
-0.67592347 -3.6295736 -0.69505638 98
-0.69947898 -3.6320996 -0.69642198 105
-0.72079557 -3.6229296 -0.69544655 117
-0.7418288 -3.6126742 -0.69427603 122
-0.76418483 -3.6090138 -0.69447112 170
-0.7942552 -3.6406713 -0.70188451 151
-0.81829756 -3.6433849 -0.70344526 132
-0.84041691 -3.6373398 -0.70325017 121
-0.86068034 -3.6235263 -0.70149434 100
-0.88127083 -3.6115072 -0.70012873 84
-0.90960854 -3.6307683 -0.70520109 132
-0.93284571 -3.6289184 -0.70598143 138
-0.95434505 -3.620281 -0.70539618 109
-0.97781932 -3.6190915 -0.70637161 97
-0.99817657 -3.6064067 -0.705006 106
-1.0210882 -3.603045 -0.70559126 96
-1.0448155 -3.6023638 -0.70676178 108
-1.0685728 -3.601527 -0.70793235 89
-1.0929284 -3.602411 -0.70949304 90
-1.1219814 -3.6181207 -0.71417522 175
-1.1423838 -3.6055582 -0.71300471 166
-1.1669005 -3.6059461 -0.7145654 100
-1.1880815 -3.5959244 -0.71398014 110
-1.2116898 -3.5932136 -0.71495557 95
-1.2353095 -3.5903485 -0.71593106 102
-1.2563422 -3.5799248 -0.71534574 93
-1.2928202 -3.6127815 -0.72392976 168
-1.3149635 -3.6047809 -0.72392976 156
-1.3363739 -3.5948057 -0.72353959 167
-1.3535439 -3.5736971 -0.72080827 158
-1.3697995 -3.550683 -0.71768683 201
-1.3990895 -3.5613823 -0.72178376 150
-1.4285619 -3.5718551 -0.72588062 152
-1.4548879 -3.5739236 -0.72822171 146
-1.4824188 -3.5785217 -0.73114806 132
-1.5001591 -3.5594163 -0.72900212 83
-1.5285393 -3.5654695 -0.73231864 98
-1.5527391 -3.5614181 -0.73348916 107
-1.5745623 -3.5518236 -0.73348916 108
-1.5898801 -3.5277879 -0.73036772 130
-1.627831 -3.5536351 -0.73817134 154
-1.657468 -3.5604749 -0.74187803 173
-1.6763484 -3.5440314 -0.74051243 183
-1.7031592 -3.5442874 -0.74285352 177
-1.7278854 -3.5399404 -0.74421912 170
-1.7556709 -3.5415745 -0.74695039 147
-1.7773685 -3.5307353 -0.74695039 147
-1.801677 -3.5250032 -0.74812096 181
-1.8232721 -3.5138822 -0.74812096 152
-1.8575937 -3.5269277 -0.75358349 234
-1.8787372 -3.5145984 -0.7533884 199
-1.9058779 -3.5133502 -0.75572944 238
-1.9373296 -3.5196345 -0.75982636 278
-1.9584112 -3.5068247 -0.75963128 178
-1.9929428 -3.5177839 -0.76489872 223
-2.0027637 -3.4850791 -0.76021653 159
-2.0339861 -3.4896729 -0.76411837 263
-2.0593522 -3.4838817 -0.76567906 185
-2.0862358 -3.4804342 -0.76782507 161
-2.1187572 -3.4860077 -0.77211708 169
-2.1447372 -3.4804568 -0.77387285 148
-2.1702089 -3.4738863 -0.7754336 162
-2.1967301 -3.4687912 -0.77738452 193
-2.2216811 -3.461025 -0.77875012 214
-2.2423408 -3.4465058 -0.77855504 196
-2.2791011 -3.456429 -0.78421265 140
-2.3024459 -3.4456418 -0.78499299 156
-2.3284931 -3.4387589 -0.78674883 139
-2.3567615 -3.434921 -0.789285 157
-2.3917875 -3.4405296 -0.79416227 232
-2.4151118 -3.4289966 -0.79494262 183
-2.4378152 -3.4165087 -0.79552788 234
-2.4679244 -3.4142048 -0.79864931 209
-2.4975173 -3.4108684 -0.80157566 162
-2.5294991 -3.4104481 -0.80528241 162
-2.5709934 -3.4223106 -0.81211054 224
-2.5937252 -3.4088128 -0.81269586 197
-2.6223743 -3.4029338 -0.81523204 168
-2.6570823 -3.4045637 -0.81971908 158
-2.6858275 -3.3981998 -0.82225525 195
-2.7029512 -3.3770611 -0.82108474 184
-2.7297964 -3.3680327 -0.8230356 197
-2.7634761 -3.3671417 -0.82713252 236
-2.7916059 -3.3591743 -0.82947361 201
-2.8317387 -3.3652477 -0.8355214 176
-2.8669622 -3.3649814 -0.8400085 154
-2.8901176 -3.3502975 -0.84078884 110
-2.9164264 -3.33915 -0.84254467 123
-2.9420574 -3.3270705 -0.84410536 128
-2.9650331 -3.3118787 -0.84488577 123
-3.0037394 -3.3139725 -0.85034829 135
-3.0372782 -3.3099337 -0.85425007 130
-3.0675426 -3.3020141 -0.85717642 126
-3.0998392 -3.2959912 -0.86068803 146
-3.1294723 -3.286854 -0.86341929 121
-3.1699986 -3.2887766 -0.86927205 121
-3.2106659 -3.2903244 -0.87512475 124
-3.2307944 -3.2705624 -0.87512475 94
-3.2986512 -3.298533 -0.88858598 38
-3.3306897 -3.2899489 -0.89190251 103
-3.3515158 -3.2701352 -0.89209759 54
-3.3927016 -3.2699296 -0.89795029 123
-3.4254868 -3.261225 -0.90146196 92
-3.4590068 -3.2529125 -0.90516865 79
-3.4947088 -3.2463138 -0.90946066 111
-3.5196204 -3.2294514 -0.91082627 68
-3.5626233 -3.2288733 -0.91706914 113
-3.5911365 -3.2148035 -0.91941023 67
-3.6291621 -3.2089515 -0.9242875 135
-3.6738982 -3.2085602 -0.9309206 31
-3.6935165 -3.1859572 -0.9309206 36
-3.7249403 -3.1734118 -0.93404204 47
-3.7646031 -3.1675472 -0.93930948 79
-3.799808 -3.1575532 -0.94340634 111
-3.832757 -3.1453791 -0.94691795 128
-3.8596036 -3.1279783 -0.94886887 140
-3.9170086 -3.1348825 -0.95862341 88
-3.9392481 -3.1132219 -0.95940375 71
-3.976059 -3.1028721 -0.96389085 81
-4.020659 -3.0981743 -0.97032881 84
-4.0497398 -3.081167 -0.97286499 101
-4.0811152 -3.0656862 -0.97598642 131
-4.1258445 -3.0598693 -0.98242444 129
-4.1714463 -3.0541975 -0.98905748 129
-4.2099791 -3.0429094 -0.99393475 110
-4.2389498 -3.0244265 -0.99647093 159
-4.2766714 -3.011915 -1.0011531 190
-4.3015141 -2.9900959 -1.0027138 136
-4.3416152 -2.9786286 -1.0079813 132
-4.4125962 -2.9876792 -1.0206621 188
-4.4455233 -2.9703569 -1.0241737 173
-4.4767661 -2.9516628 -1.0272952 166
-4.5071239 -2.9321618 -1.0302216 98
-4.5605206 -2.9272346 -1.0386105 144
-4.5701103 -2.893949 -1.0366595 86
-4.6110711 -2.880404 -1.042122 82
-4.6712413 -2.8782995 -1.0520717 98
-4.7005477 -2.8567152 -1.0548029 74
-4.7154641 -2.8263066 -1.0542177 61
-4.7732434 -2.8212769 -1.0635819 105
-4.8328314 -2.8166318 -1.0733365 105
-4.8712821 -2.7991428 -1.0782138 87
-4.9011655 -2.7764525 -1.0811402 111
-4.9420853 -2.7597182 -1.0866027 141
-5.0044632 -2.7544098 -1.0969424 99
-5.0316153 -2.7292633 -1.0992836 106
-5.0655656 -2.7075865 -1.1031853 127
-5.1610503 -2.7180481 -1.1209385 67
-5.1680551 -2.68136 -1.1187925 129
-5.2027497 -2.6589735 -1.1228894 139
-5.2399917 -2.6375844 -1.1275716 161
-5.2745299 -2.6145315 -1.1316686 170
-5.3301353 -2.6014793 -1.1404476 186
-5.3636775 -2.5772219 -1.1443493 203
-5.429039 -2.5677488 -1.1552744 203
-5.4811473 -2.5513604 -1.1632731 179
-5.5287991 -2.5323863 -1.1702964 199
-5.5692701 -2.5096986 -1.175759 236
-5.6177392 -2.4901872 -1.1829773 217
-5.6733699 -2.4733105 -1.1917564 267
-5.7317076 -2.4570038 -1.2011206 249
-5.7819228 -2.4366453 -1.2087291 222
-5.848413 -2.4225194 -1.2198493 205
-5.8640757 -2.3869586 -1.2200444 207
-5.9551053 -2.3815286 -1.2364321 285
-5.9842114 -2.3506823 -1.2395535 247
-6.0461049 -2.3322778 -1.2496982 294
-6.1153331 -2.3159807 -1.2614036 233
-6.1707973 -2.2937944 -1.2701826 224
-6.2022619 -2.2622745 -1.2738893 267
-6.2391119 -2.2324374 -1.2787666 255
-6.29989 -2.2106781 -1.2887162 287
-6.3708358 -2.1917665 -1.3008118 241
-6.4231973 -2.1657982 -1.3090056 230
-6.499691 -2.1472702 -1.3222717 226
-6.5370059 -2.1152003 -1.3273441 241
-6.5648208 -2.0797904 -1.3304656 262
-6.6598945 -2.0650361 -1.3476335 250
-6.7437682 -2.0457754 -1.3624604 251
-6.7891035 -2.014123 -1.3692886 248
-6.8220568 -1.978439 -1.3735805 262
-6.9029522 -1.9560658 -1.3878222 259
-6.9724841 -1.929634 -1.3997226 247
-7.0163851 -1.895514 -1.4063557 311
-7.0847864 -1.8674284 -1.4180611 127
-0 -0 -0 6
-0 -0 -0 8
-0 -0 -0 8
-1.66265 -0.39456871 -0.30058375 14
-1.6573949 -0.38259289 -0.29902303 18
-0 -0 -0 7
-0 -0 -0 6
-1.6737515 -0.35405281 -0.30097392 18
-1.684539 -0.34555191 -0.30272973 19
-1.6837417 -0.33463505 -0.30214447 22
-1.693468 -0.32578149 -0.30370519 16
-0.65023834 -0.12071329 -0.09222728 15
-0.66061968 -0.1184579 -0.094178185 14
-0.66906476 -0.11574411 -0.095738903 19
-0.6600889 -0.11001854 -0.093788005 18
-0.65106833 -0.10440756 -0.091837101 21
-0.65072745 -0.10026079 -0.091642007 18
-0.63095701 -0.093242645 -0.087545112 29
-0.63151723 -0.089369409 -0.087545112 41
-0.61844778 -0.083643988 -0.084813848 37
-0.60922289 -0.078586765 -0.082862943 58
-0.61553401 -0.075567901 -0.084033489 39
-0.61598611 -0.07178963 -0.084033489 29
-0.62518823 -0.068982169 -0.085789301 40
-0.64901048 -0.067597225 -0.090471469 33
-0.65526938 -0.064190887 -0.091642007 32
-0.69373941 -0.063687086 -0.099250533 75
-0.69216281 -0.05926076 -0.098860353 74
-0.68078142 -0.054074027 -0.096519269 49
-0.64882237 -0.047512718 -0.090081289 30
-0.64127326 -0.043001026 -0.088520564 38
-0.61803061 -0.037620481 -0.083838396 56
-0.55655473 -0.030413086 -0.071547702 46
-0.51558763 -0.024973622 -0.063353911 64
-0.48633483 -0.020544244 -0.057501201 80
-0.47076985 -0.016981136 -0.054379757 132
-0.45321938 -0.013549536 -0.050868131 231
-0.62072253 -0.044740748 -0.08822038 23
-0.63271379 -0.041726351 -0.090631261 41
-0.61535829 -0.036758583 -0.087014936 35
-0.58427286 -0.031245744 -0.080585912 43
-0.51009363 -0.023992417 -0.065316983 79
-0.46129629 -0.018749343 -0.055271637 135
-0.45161325 -0.01555604 -0.053262569 297
-0.45953333 -0.013026633 -0.054869823 464
-0.45470807 -0.010085579 -0.053865291 712
-0.45476139 -0.0072953529 -0.053865291 747
-0.45577714 -0.0045170658 -0.054066196 823
-0.45579627 -0.0017203849 -0.054066196 736
-0.45579824 0.0010763608 -0.054066196 738
-0.45676264 0.0038788845 -0.054267105 703
-0.45868933 0.0067051123 -0.054668918 749
-0.45863956 0.0095194513 -0.054668918 670
-0.46053115 0.012381128 -0.055070732 700
-0.46142566 0.015236518 -0.055271637 644
-0.4613235 0.018067487 -0.055271637 631
-0.46218267 0.020939644 -0.055472545 640
-0.46204549 0.023775149 -0.055472545 580
-0.46189091 0.02660976 -0.055472545 594
-0.4626967 0.029503247 -0.05567345 539
-0.46250698 0.032341745 -0.05567345 483
-0.46229982 0.035179026 -0.05567345 472
-0.46305177 0.038092848 -0.055874359 462
-0.46378535 0.041017219 -0.056075267 356
-0.46157396 0.043682493 -0.05567345 278
-0.45642269 0.046034701 -0.054668918 122
-0.44931149 0.048121739 -0.053262569 89
-0.44121847 0.050015487 -0.051655315 84
-0.43798432 0.052380543 -0.051052593 42
-0 0 -0 4
-0 0 -0 5
-0 0 -0 6
-0 0 -0 6
-0 0 -0 4
-0 0 -0 6
-1.1307489 0.1828921 -0.1955047 7
-0 0 -0 5
-0 0 -0 11
-1.9891646 0.35852054 -0.37511551 15
-1.9869273 0.37071908 -0.37511551 12
-1.9875011 0.3834587 -0.37571824 17
-1.9793459 0.39450103 -0.37451279 14
-0 0 -0 6
-0 0 -0 4
-0 0 -0 5
-0 0 -0 4
-0 0 -0 1
-0 0 -0 3
-0 0 -0 1
-0 0 -0 1
-0 0 -0 1
-0 0 -0 1
-0 0 -0 1
-0 0 -0 1
-0 0 -0 1
-0 0 -0 1
-0 0 -0 1
-0 0 -0 1
-0 0 -0 1
-0 0 -0 1
-0 0 -0 1
-0 0 -0 1
-0 0 -0 1
-0 0 -0 1
-0 0 -0 1
-0 0 -0 1
-0 0 -0 1
-0 0 -0 1
-0 0 -0 1
-0 0 -0 1
-0 0 -0 1
-0 0 -0 1
-0 0 -0 1
-0 0 -0 1
-0 0 -0 1
-0 0 -0 1
-0 0 -0 1
-0 0 -0 1
-0 0 -0 1
-0 0 -0 1
-0 0 -0 1
-0 0 -0 1
-0 0 -0 1
-0 0 -0 1
-0 0 -0 1
-0 0 -0 1
-0 0 -0 1
-0 0 -0 1
-0 0 -0 1
-0 0 -0 1
-0 0 -0 1
-0 0 -0 1
-0 0 -0 1
-0 0 -0 1
-0 0 -0 1
-0 0 -0 2
-0 0 -0 5
-0 0 -0 2
-0 0 -0 4
-0 0 -0 3
-0 0 -0 3
-0 0 -0 3
-0 0 -0 2
