# .PCD v0.7 - Point Cloud Data file format
VERSION 0.7
FIELDS x y z intensity
SIZE 4 4 4 4
TYPE F F F F
COUNT 1 1 1 1
WIDTH 1537
HEIGHT 1
VIEWPOINT 0 0 0 1 0 0 0
POINTS 1537
DATA ascii
-0 0 -0 6
-0 0 -0 6
-0 0 -0 3
-0 0 -0 6
-0 0 -0 6
-0 0 -0 5
-0 0 -0 6
-0 0 -0 7
-0 0 -0 7
-0 0 -0 6
-0 0 -0 6
-0 0 -0 6
-0 0 -0 7
-0 0 -0 8
-0 0 -0 6
-0 0 -0 9
-0 0 -0 10
-0 0 -0 7
-0 0 -0 10
-0 0 -0 6
-0 0 -0 3
-0 0 -0 2
-0 0 -0 1
-0 0 -0 1
-0 0 -0 1
-0 0 -0 3
-0 0 -0 1
-0 0 -0 1
-0 0 -0 2
-0 0 -0 2
-0 0 -0 8
-0 0 -0 1
-0 0 -0 1
-0 0 -0 1
-0 0 -0 1
-0 0 -0 1
-0 0 -0 1
-0 0 -0 1
-0 0 -0 1
-0 0 -0 1
-0.016121376 0.28578189 -0.0025493847 1962
-0.014464217 0.28785285 -0.0028329152 1751
-0.012655445 0.28694719 -0.0026911499 1668
-0.010822137 0.28504097 -0.0024076197 1610
-0.0091030821 0.28609145 -0.0025493847 1632
-0.0072512627 0.2821835 -0.0019823243 1549
-0.0055376641 0.28321242 -0.0021240893 1554
-0.0037878912 0.28225124 -0.0019823243 1492
-0.0020559588 0.28226915 -0.0019823243 1493
-0.00032394921 0.28227645 -0.0019823243 1462
0.0014143841 0.28326303 -0.0021240893 1530
0.0031400416 0.28225917 -0.0019823243 1471
0.0048903506 0.28322431 -0.0021240893 1497
0.0066035595 0.28219938 -0.0019823243 1423
0.0083655808 0.28314298 -0.0021240893 1419
0.010176102 0.28506476 -0.0024076197 1364
0.011882292 0.284008 -0.0022658545 1366
0.013917565 0.28986192 -0.0031164454 1182
0.014872738 0.27494538 -0.00098996831 942
0.018692339 0.30942976 -0.0059517482 385
0.024744598 0.37054232 -0.014741187 205
0.026798563 0.3674219 -0.014315891 150
0.029527204 0.37317097 -0.015166482 131
0.034115903 0.39961097 -0.018994141 88
0.037388183 0.40826529 -0.020270027 120
0.041643292 0.42576021 -0.022821799 131
0.045494601 0.43731061 -0.024522981 133
0.050801314 0.46063545 -0.027925344 88
0.052819103 0.45343298 -0.026932988 89
0.066163003 0.53857148 -0.039266557 67
3.4598987 26.655306 -3.8109281 48
3.6213856 26.618862 -3.8088017 92
3.7839503 26.59124 -3.8080928 70
0.048954226 0.33214295 -0.0096376417 68
4.114677 26.573128 -3.8124874 60
4.2819014 26.573769 -3.8163152 45
4.4458551 26.552853 -3.8171656 76
4.6075106 26.518246 -3.8161733 90
4.7731194 26.506039 -3.8185833 86
4.9421988 26.511284 -3.8236868 72
5.1096482 26.505732 -3.8273728 84
5.274508 26.485531 -3.8290739 94
5.4371204 26.453638 -3.8292158 77
5.6022081 26.433336 -3.8312004 119
5.7727423 26.437149 -3.8368711 70
5.9404941 26.42634 -3.8405569 55
6.1145754 26.441473 -3.8482122 39
6.2780757 26.409235 -3.8490629 47
6.4411759 26.375025 -3.8497717 50
6.6057777 26.346529 -3.8514729 58
6.7747121 26.334261 -3.8557258 42
2.8374951 10.756699 -1.5547359 69
7.1087327 26.291187 -3.8619635 39
2.9410083 10.618992 -1.539567 92
2.9461484 10.389327 -1.5080951 77
0 0 -0 20
3.5882003 12.086129 -1.7671001 58
3.66488 12.07241 -1.7683759 223
3.7415264 12.058204 -1.7696518 68
2.8380153 8.9522581 -1.3065051 60
2.873069 8.8734617 -1.2972903 125
2.9215574 8.8378086 -1.2945968 84
2.9735148 8.8131504 -1.2936045 129
3.0446146 8.844346 -1.301118 94
4.1795402 11.902978 -1.7682341 101
3.6000917 10.055138 -1.4910833 615
3.6569693 10.019839 -1.4890987 135
3.4415929 9.2531252 -1.3754029 34
3.581095 9.4502878 -1.4088595 146
3.6418653 9.4355249 -1.4099936 133
3.927479 9.992486 -1.499164 164
3.9740064 9.9314375 -1.4934933 137
3.9273248 9.6428385 -1.452665 100
4.7831559 11.54075 -1.7506553 103
6.9201741 16.411064 -2.5122175 27
4.2824883 9.9846659 -1.5174516 52
5.1562619 11.820941 -1.8084955 28
4.4103122 9.9440289 -1.5194364 68
4.4773483 9.9303169 -1.5215628 98
3.8514831 8.4043465 -1.2855239 80
6.8228021 14.649366 -2.2758951 49
3.9327312 8.3108168 -1.2782938 107
3.9647784 8.2472754 -1.2720562 131
4.0244303 8.2414722 -1.2750332 227
4.1105514 8.288455 -1.2865162 170
5.409903 10.742084 -1.6840256 60
4.4228806 8.6498594 -1.3528624 143
4.4261575 8.5267944 -1.3374099 270
4.4327068 8.412776 -1.3233751 259
5.5682583 10.412298 -1.6525538 44
4.7953167 8.8362579 -1.401346 151
4.8293886 8.7702494 -1.3953918 151
4.8097205 8.6090994 -1.3738436 59
5.6483383 9.965929 -1.6020855 205
5.6560946 9.8384018 -1.5867748 202
5.6969075 9.7701607 -1.5812459 244
5.7703543 9.7580271 -1.5850736 91
5.8357201 9.7317753 -1.586633 212
5.9040666 9.7101641 -1.589043 55
8.7173719 14.140547 -2.3405399 44
8.7787895 14.046499 -2.3337352 44
5.4174356 8.5512571 -1.4112695 46
5.4232655 8.4453907 -1.398936 102
5.5630059 8.5471849 -1.4220437 201
5.6115303 8.5071058 -1.4210514 46
8.7279959 13.05629 -2.2106831 46
5.5905838 8.2532043 -1.3891542 112
5.6456013 8.225275 -1.3902884 146
5.6490517 8.1230278 -1.3785218 96
5.7512445 8.1626587 -1.3915642 382
5.7299037 8.0273113 -1.3739853 213
5.421145 7.4970865 -1.2865162 102
5.4588542 7.4525023 -1.2845315 117
5.4802942 7.3862739 -1.2787192 227
5.6236448 7.4830761 -1.3021104 54
5.4745893 7.1924415 -1.2560368 64
6.1804428 8.0171528 -1.4112695 196
6.2069783 7.9502101 -1.4060242 372
6.2906399 7.9562349 -1.4141048 20
10.314707 12.882107 -2.3249459 35
12.61558 15.558908 -2.8301969 27
9.8356771 11.979561 -2.1813378 43
11.211407 13.485501 -2.4730904 22
12.755116 15.152156 -2.7980161 41
11.384398 13.356698 -2.4749334 27
11.981604 13.88387 -2.5879202 29
12.066568 13.810091 -2.5879202 28
11.749665 13.282047 -2.5011599 26
11.793296 13.167672 -2.4930794 16
13.238352 14.599811 -2.7839813 19
12.057758 13.134987 -2.5150528 66
12.159018 13.083233 -2.5194476 18
13.66968 14.528852 -2.8184302 37
11.775186 12.36249 -2.4066026 31
11.806842 12.244402 -2.3975296 46
0 0 -0 15
14.260091 14.429801 -2.866914 20
13.565613 13.559658 -2.7084205 24
0 0 -0 16
11.564591 11.279311 -2.2750444 51
11.655682 11.22943 -2.2794392 64
14.326707 13.634147 -2.793905 15
11.796934 11.08962 -2.2802899 50
12.72365 11.814513 -2.4481397 18
11.062527 10.146463 -2.1113057 22
11.077623 10.03586 -2.1022329 25
11.001783 9.844924 -2.0758646 16
14.195042 12.546267 -2.6746805 20
12.784013 11.160217 -2.3918591 43
12.37693 10.671751 -2.30198 67
15.568395 13.257726 -2.8900218 20
12.243315 10.297337 -2.2526457 42
12.230119 10.158771 -2.2384691 14
12.456773 10.218513 -2.2689486 97
12.388475 10.035962 -2.2448485 21
0 0 -0 16
12.739849 10.064196 -2.2866693 71
12.889562 10.054633 -2.3026888 74
12.691426 9.7754211 -2.2557645 123
12.927668 9.8315868 -2.2875199 12
13.080367 9.821619 -2.3041065 50
11.180126 8.2880764 -1.9546553 38
11.263523 8.243289 -1.9604677 33
14.891842 10.758855 -2.5925984 30
11.853852 8.4538984 -2.0466609 42
11.652948 8.203228 -2.0024302 93
13.902893 9.6599779 -2.3860466 47
0 0 -0 17
11.531429 7.8042612 -1.9556477 22
14.655412 9.787818 -2.485424 12
20.339945 13.404394 -3.4501357 17
20.42347 13.280417 -3.4504192 14
0 0 -0 10
13.252602 8.3881264 -2.207706 51
14.232508 8.8864737 -2.3644984 12
14.282552 8.796382 -2.3637896 72
14.360791 8.7234831 -2.3679006 19
0 0 -0 9
0 0 -0 14
31.218252 18.184958 -5.1355815 16
14.646091 8.411808 -2.3803761 34
14.385596 8.1452303 -2.329057 8
0 0 -0 8
0 0 -0 9
19.261143 10.442211 -3.099267 13
15.001131 8.0140877 -2.3972461 19
13.969073 7.3529439 -2.2223079 30
15.137893 7.8499031 -2.4036255 22
15.20605 7.7672272 -2.4068861 48
15.259612 7.6768923 -2.4078784 36
15.309091 7.584435 -2.4083037 29
15.359788 7.4925275 -2.4090126 26
15.409041 7.3998542 -2.4095798 31
19.442102 9.1901541 -3.041285 37
15.504074 7.2127094 -2.4104302 30
30.820673 14.108391 -4.8159013 13
30.898539 13.915355 -4.8146253 11
0 0 -0 8
0 0 -0 7
0 0 -0 8
30.689737 12.925042 -4.7305584 8
30.657795 12.69068 -4.7134047 13
30.649811 12.467641 -4.7002206 23
30.651278 12.249588 -4.6887379 13
30.630032 12.023667 -4.6739941 17
30.627491 11.806304 -4.6623693 21
30.641956 11.596432 -4.6535802 24
30.642937 11.382348 -4.6429477 18
30.652678 11.172418 -4.6338744 21
30.702942 10.977794 -4.6311812 31
30.688452 10.760701 -4.6188474 26
30.602247 10.520066 -4.5958815 19
30.560217 10.296383 -4.5798621 32
30.515657 10.073302 -4.5637007 23
30.510017 9.8642521 -4.5536356 25
30.519007 9.6607285 -4.5459805 16
30.499228 9.4489717 -4.5342135 15
30.505474 9.24615 -4.5265584 18
30.481909 9.0351677 -4.5146503 29
30.481628 8.8319864 -4.5064278 18
30.42857 8.6145887 -4.49055 30
30.426472 8.4126844 -4.4824696 33
30.443113 8.216547 -4.477366 16
30.412544 8.0084238 -4.4654574 33
30.365231 7.7970471 -4.4512811 29
30.346241 7.5940022 -4.4414992 31
30.359566 7.3996887 -4.4366794 29
30.348534 7.2000141 -4.4284568 36
30.083485 6.9424381 -4.3830919 10
29.122911 6.5328293 -4.23594 9
29.075399 6.3350458 -4.2231812 18
28.545223 6.0363131 -4.1399651 16
20.831688 4.2719135 -3.006978 52
20.842943 4.141119 -3.0048513 76
20.693956 3.9796915 -2.9794755 64
20.615797 3.8336401 -2.9645901 69
20.554167 3.6918483 -2.9522567 75
20.51791 3.5555208 -2.9437506 64
20.376284 3.4023352 -2.9200759 73
20.174915 3.2416012 -2.8878951 75
20.056482 3.0964556 -2.8679063 77
19.698105 2.9175026 -2.8133268 65
19.280474 2.7348654 -2.7503831 90
19.203705 2.6038775 -2.7369153 41
19.220303 2.4861238 -2.7370572 68
18.952238 2.333313 -2.6962287 40
18.591597 2.1732006 -2.6422162 42
18.124441 2.0059538 -2.5730348 30
17.942451 1.8744482 -2.5451071 45
17.592064 1.7287979 -2.4930794 43
17.32535 1.5953234 -2.4532433 61
16.930441 1.4542625 -2.3951197 60
16.624266 1.3252654 -2.3498964 89
16.41884 1.2075576 -2.3192751 80
16.071371 1.082908 -2.2683816 87
15.849472 0.9703083 -2.2356339 82
15.549711 0.85622972 -2.1918285 73
15.355939 0.75108707 -2.1633337 91
15.050702 0.64362103 -2.1189611 75
14.895101 0.54543161 -2.0961368 87
14.576599 0.44423527 -2.0500634 99
14.408837 0.35064897 -2.0256796 84
14.224648 0.25885054 -1.9990278 65
13.985439 0.16867074 -1.9645789 105
13.755569 0.081494644 -1.9315476 133
13.568718 -0.002864568 -1.904754 122
13.393236 -0.085003473 -1.8796616 102
13.216274 -0.16497667 -1.8544273 96
13.059626 -0.24316914 -1.8321702 107
12.80752 -0.3170906 -1.7963036 103
12.633173 -0.39034528 -1.7716365 107
12.500952 -0.46304947 -1.7530653 129
12.316893 -0.53192341 -1.7271223 136
12.126534 -0.59826344 -1.7003287 128
11.989203 -0.66525108 -1.6811904 154
11.816932 -0.72844338 -1.6570903 137
11.638417 -0.78914499 -1.6321397 134
11.539572 -0.85360157 -1.6186719 136
11.374266 -0.91157448 -1.595706 164
11.26589 -0.97249109 -1.5809624 168
11.137486 -1.030288 -1.5633836 192
10.985158 -1.0842119 -1.5424023 180
10.811919 -1.1341364 -1.5184439 162
10.718179 -1.1908334 -1.5059687 151
10.593675 -1.2428463 -1.4890987 167
10.446344 -1.2905842 -1.4689679 187
10.335155 -1.3412768 -1.4540826 202
10.187448 -1.385716 -1.433952 171
10.06801 -1.4324384 -1.4179325 184
9.9914703 -1.4841492 -1.4081507 190
9.8520699 -1.5252798 -1.3892959 182
9.7721605 -1.5743631 -1.3790889 171
9.6266088 -1.6115704 -1.3593835 197
9.5004807 -1.6504409 -1.3425134 190
9.4375668 -1.6992294 -1.3348582 199
9.2897511 -1.7315243 -1.3148693 183
9.2011919 -1.7735012 -1.3035281 197
9.0852861 -1.809043 -1.2882174 205
8.9954748 -1.8486115 -1.2767345 207
8.9152079 -1.889199 -1.2666692 188
8.7864275 -1.9183122 -1.2495155 192
8.7184753 -1.9595956 -1.2412932 197
8.6137009 -1.9916422 -1.2276837 203
8.5242729 -2.0261409 -1.2163424 213
8.3808985 -2.0464656 -1.1970624 171
8.324976 -2.0870173 -1.190683 216
7.7051682 -1.9819337 -1.1009457 134
7.4813318 -1.9733672 -1.0696156 564
7.4748163 -2.0207851 -1.0704662 666
7.4679999 -2.068197 -1.0713167 695
7.4608836 -2.1156015 -1.0721674 656
7.4658246 -2.1665835 -1.0748609 552
7.454288 -2.2129159 -1.0751444 652
7.4547777 -2.2629266 -1.0772709 597
7.4492607 -2.3112659 -1.0785468 570
7.4406009 -2.3587253 -1.0793973 518
7.4005604 -2.3961015 -1.0755697 354
7.3406053 -2.4265499 -1.0687649 261
7.2693019 -2.4525554 -1.0602591 325
7.2017016 -2.4790668 -1.0523202 280
7.1443253 -2.5084496 -1.0459408 280
7.0262842 -2.5155308 -1.0303466 315
6.9846802 -2.5490923 -1.0263772 299
6.8965402 -2.5649819 -1.0153195 339
6.866787 -2.6019878 -1.013193 303
6.786972 -2.6194754 -1.0034113 379
6.7127309 -2.6382554 -0.99448007 349
6.6449499 -2.658798 -0.98654121 313
6.5762553 -2.6782358 -0.97846061 340
6.5487247 -2.7139881 -0.97675943 289
6.4781337 -2.7314253 -0.96839523 333
6.357542 -2.7266364 -0.95223403 401
6.3171015 -2.7553034 -0.94854814 358
6.2521176 -2.7727401 -0.94103462 336
6.2205486 -2.8045397 -0.93876636 328
6.1420307 -2.8146095 -0.92912632 407
6.0887513 -2.8355253 -0.92345572 369
6.0282903 -2.8525059 -0.91665101 381
5.9714198 -2.870568 -0.91041332 327
5.886982 -2.8745739 -0.89978093 383
5.8559308 -2.9040439 -0.89765447 343
5.7999854 -2.9207735 -0.89155853 329
5.7299552 -2.9297154 -0.88319439 332
5.6776071 -2.9470308 -0.87766558 374
5.6357722 -2.9693525 -0.87383789 303
5.5834031 -2.9856701 -0.86830908 280
5.5449681 -3.0090125 -0.86504847 271
5.4735069 -3.0138502 -0.85640079 317
5.4238014 -3.0299964 -0.85129726 282
5.3878841 -3.0534565 -0.84846199 312
5.333004 -3.0657356 -0.84250784 253
5.2884388 -3.083441 -0.83825487 258
5.233633 -3.0946684 -0.83230072 314
5.1822863 -3.1073768 -0.82691365 302
5.1326733 -3.1206009 -0.82181013 300
5.0805664 -3.1317754 -0.81628126 339
5.0427871 -3.1513479 -0.81316245 258
4.9940891 -3.1636877 -0.80820066 270
4.9604235 -3.1851778 -0.80579066 242
4.8959861 -3.1863935 -0.79813534 274
4.8465958 -3.1967511 -0.79303181 237
4.793149 -3.2038727 -0.78721941 300
4.726686 -3.2015765 -0.7791388 293
4.7028718 -3.2277176 -0.77842999 251
4.6642871 -3.2435133 -0.77516937 247
4.6127391 -3.2498345 -0.76964056 242
4.5733752 -3.2642732 -0.76623815 257
4.5332065 -3.2777715 -0.76269406 257
4.4882541 -3.2873905 -0.75829935 259
4.454484 -3.3048401 -0.7558893 192
4.3866429 -3.2964258 -0.74738342 130
4.3537316 -3.3136864 -0.74511516 137
4.3293972 -3.3373158 -0.74440634 177
4.2862115 -3.3461506 -0.74029517 97
4.239975 -3.3521261 -0.73561692 89
4.2285995 -3.3855038 -0.7373181 108
4.215436 -3.4176209 -0.73873574 113
4.1599588 -3.4151545 -0.73235631 120
4.1419706 -3.4431465 -0.73292339 219
4.113193 -3.4621212 -0.73150569 142
4.0549574 -3.4558289 -0.72455925 198
4.0231848 -3.47159 -0.72257453 223
3.9898813 -3.4857891 -0.72030628 185
3.9409854 -3.4859364 -0.71506095 144
3.9106734 -3.5021269 -0.71335977 136
3.864912 -3.5041132 -0.70868152 124
3.838963 -3.5237451 -0.70783097 94
3.7947917 -3.5263433 -0.7034362 140
3.7586641 -3.5359945 -0.70060092 122
3.7261453 -3.5487494 -0.69847447 114
3.6807859 -3.5488706 -0.69379622 94
3.6532743 -3.5658567 -0.69266206 120
3.6193566 -3.5763764 -0.69025207 112
3.5644538 -3.5656109 -0.6835891 169
3.5279033 -3.5726221 -0.68061203 120
3.493475 -3.5814457 -0.67806023 162
3.4576979 -3.5885558 -0.67522496 176
3.4246955 -3.5982308 -0.67295671 138
3.3876369 -3.6033087 -0.66983789 143
3.3607488 -3.6189492 -0.66884553 113
3.3264363 -3.6263704 -0.66629374 105
3.2928245 -3.6342413 -0.66388375 106
3.2658427 -3.6492133 -0.66289139 152
3.2276568 -3.651382 -0.65948904 157
3.1641796 -3.6241364 -0.65055782 85
3.1334796 -3.6337371 -0.6487149 92
3.1034231 -3.6438513 -0.64701372 82
3.0765464 -3.6575217 -0.64602137 138
3.0382342 -3.6572931 -0.64247721 100
3.0056913 -3.6636207 -0.64020896 94
2.975055 -3.6719949 -0.63836604 58
2.9481394 -3.6847694 -0.63737369 68
2.9181113 -3.6934681 -0.63567251 53
2.8649523 -3.6722772 -0.62858421 121
2.8411577 -3.6882186 -0.62830073 78
2.8130808 -3.6984906 -0.62702483 85
2.7784472 -3.6998496 -0.6241895 88
2.7515664 -3.7112615 -0.62319714 64
2.7106202 -3.703311 -0.61880243 48
2.678571 -3.7070348 -0.61653417 111
2.6442795 -3.7072814 -0.6136989 123
2.6049583 -3.6999621 -0.60958773 116
2.584466 -3.7191279 -0.61015475 81
2.5615971 -3.734916 -0.61015475 68
2.5303099 -3.738266 -0.60802829 58
2.5067749 -3.7528982 -0.60788649 102
2.4755299 -3.7558105 -0.60576004 65
2.4400268 -3.7518418 -0.60249943 54
2.4164255 -3.7659097 -0.60235769 53
2.3911552 -3.7773199 -0.60179061 73
2.3584964 -3.7768064 -0.59923887 73
2.3280108 -3.7794065 -0.59725416 67
2.2970684 -3.7809291 -0.59512764 82
2.2661951 -3.7822146 -0.59300119 65
2.2308617 -3.7755935 -0.58959883 57
2.2001793 -3.7763801 -0.58747232 56
2.1818964 -3.7983932 -0.58889002 73
2.1551347 -3.8056796 -0.58789766 56
2.128366 -3.8127809 -0.5869053 68
2.104454 -3.8249011 -0.5867635 111
2.0691509 -3.8159857 -0.58321941 55
2.0354362 -3.809401 -0.58010054 68
2.0097184 -3.8174388 -0.57939172 88
1.9858017 -3.8288195 -0.57924998 71
1.9564174 -3.8294718 -0.577407 89
1.9324386 -3.8405197 -0.57726526 63
1.9013671 -3.8372252 -0.57485527 93
1.8756166 -3.8443711 -0.57414639 82
1.8502786 -3.8522379 -0.57357937 61
1.8249148 -3.8599386 -0.57301229 68
1.7974386 -3.8629856 -0.5717364 67
1.7687579 -3.8631408 -0.57003522 74
1.7454273 -3.8748236 -0.57017702 55
1.7131994 -3.8664536 -0.56719995 80
1.6870708 -3.8714478 -0.56634933 67
1.6593864 -3.8726275 -0.56493169 66
1.6332879 -3.8772626 -0.56408107 57
1.6053021 -3.8771501 -0.5625217 57
1.5755144 -3.872256 -0.56025344 77
1.5414394 -3.8561122 -0.55628401 136
1.5224519 -3.8774767 -0.55812693 106
1.4993435 -3.8885925 -0.55841047 75
1.4737035 -3.89309 -0.55770165 99
1.4484094 -3.8983474 -0.55713463 72
1.4231066 -3.903441 -0.55656755 70
1.3981289 -3.9093032 -0.55614227 65
1.3682199 -3.9009938 -0.55359048 87
1.342649 -3.904635 -0.55288166 88
1.3145567 -3.9006047 -0.55103868 81
1.2871851 -3.898257 -0.54947931 91
1.2611101 -3.8994884 -0.54848695 109
1.234471 -3.8986592 -0.54721105 87
1.2043743 -3.8863037 -0.54423398 78
1.1773474 -3.8831995 -0.54267454 83
1.1515292 -3.8837068 -0.54168218 104
1.1263002 -3.8859453 -0.54097337 70
1.1024352 -3.8927832 -0.54097337 91
1.0782651 -3.8985202 -0.54083163 72
1.0545818 -3.9060185 -0.54097337 71
1.0326116 -3.920074 -0.54210752 67
1.0087852 -3.927295 -0.54224926 73
0.98322701 -3.927649 -0.54139864 82
0.9569993 -3.9249525 -0.54012281 107
0.93586862 -3.9432719 -0.54196572 116
0.90965235 -3.940259 -0.54068983 83
0.88394165 -3.9390049 -0.53969747 88
0.85933429 -3.9424202 -0.53941393 93
0.83533269 -3.9485872 -0.53955573 96
0.8102935 -3.9497595 -0.53898865 93
0.784307 -3.9459188 -0.53771275 103
0.7598936 -3.9496846 -0.53757101 77
0.73673022 -3.9601123 -0.53842163 63
0.71136767 -3.9587123 -0.53757101 89
0.6885851 -3.971781 -0.53884691 63
0.66224557 -3.9642148 -0.53714573 79
0.63790917 -3.9682035 -0.53714573 60
0.61158544 -3.9593248 -0.53530276 68
0.58960021 -3.9786706 -0.53757101 126
0.56378639 -3.9724123 -0.53615338 78
0.53940153 -3.9757969 -0.53615338 91
0.51486939 -3.9780502 -0.53601158 116
0.48815301 -3.9624672 -0.53331804 103
0.46337095 -3.9614551 -0.53275102 90
0.43883744 -3.962256 -0.53246748 77
0.41513425 -3.9707811 -0.53331804 121
0.39105254 -3.9762092 -0.53374338 59
0.36673835 -3.9795194 -0.53388512 51
0.34095848 -3.9659145 -0.53161687 67
0.31638175 -3.9649715 -0.53119159 74
0.29306337 -3.9806595 -0.5331763 55
0.26830035 -3.9774444 -0.53246748 41
0.24352738 -3.9730875 -0.53161687 60
0.21881798 -3.9685767 -0.53076631 85
0.19475314 -3.9757769 -0.53161687 79
0.17022777 -3.9739301 -0.53119159 72
0.14573239 -3.9719319 -0.53076631 75
0.12171986 -3.9846246 -0.53246748 66
0.097532988 -3.9961822 -0.53402686 52
0.07281322 -3.9858184 -0.53246748 81
0.048402969 -3.9901495 -0.5330345 69
0.023930633 -3.9923511 -0.53331804 84
-0.00056428398 -3.9835136 -0.53204215 89
-0.024930917 -3.9715567 -0.53034097 69
-0.04927469 -3.9693491 -0.53005743 85
-0.073555395 -3.9650133 -0.52949041 71
-0.098201782 -3.9773521 -0.53133333 108
-0.12242089 -3.9707382 -0.53048277 96
-0.14711264 -3.9788151 -0.53175867 87
-0.17113873 -3.9689367 -0.53048277 127
-0.19514678 -3.960891 -0.52949041 119
-0.21939181 -3.9586308 -0.52934861 160
-0.24392113 -3.9611621 -0.52991569 159
-0.26922676 -3.9744053 -0.53204215 126
-0.29390043 -3.9766273 -0.53260922 99
-0.31853238 -3.9777095 -0.5330345 135
-0.34233698 -3.9687765 -0.53204215 114
-0.36613518 -3.9606872 -0.53119159 140
-0.38994429 -3.9534404 -0.53048277 75
-0.41429812 -3.9519579 -0.53062451 76
-0.44006988 -3.9631152 -0.53260922 58
-0.46437883 -3.9603403 -0.53260922 67
-0.48988438 -3.9672406 -0.53402686 76
-0.51103181 -3.9396186 -0.53048277 94
-0.53733051 -3.9521027 -0.53275102 77
-0.56366217 -3.9634316 -0.53487748 102
-0.58928007 -3.9687107 -0.53615338 85
-0.61422646 -3.9689331 -0.5367204 76
-0.63856781 -3.9650898 -0.5367204 83
-0.66321206 -3.9630494 -0.53700393 72
-0.68734694 -3.9579301 -0.53686219 69
-0.71214575 -3.9565609 -0.53728747 93
-0.74112642 -3.9774182 -0.54097337 134
-0.76420569 -3.965992 -0.53998101 116
-0.78813946 -3.9592865 -0.53969747 83
-0.81022596 -3.9437101 -0.53813809 120
-0.83502465 -3.9415696 -0.53856337 134
-0.85961634 -3.9383059 -0.53884691 133
-0.8846336 -3.9368205 -0.53941393 123
-0.91122627 -3.9419272 -0.54097337 104
-0.9360832 -3.939151 -0.54139864 148
-0.96516782 -3.9535275 -0.54437572 186
-0.98362988 -3.9244866 -0.54097337 113
-1.0113913 -3.9327576 -0.54309988 150
-1.0355031 -3.9264779 -0.54309988 127
-1.0634519 -3.9343839 -0.54522634 145
-1.0904795 -3.9382784 -0.54678577 139
-1.1157042 -3.9353225 -0.54735279 122
-1.1503154 -3.9645278 -0.55273986 214
-1.1760285 -3.9621398 -0.55344868 222
-1.1934156 -3.9321163 -0.55004632 187
-1.2160532 -3.9199924 -0.54933751 195
-1.2475625 -3.9360473 -0.55288166 214
-1.282974 -3.9631631 -0.55812693 213
-1.3150358 -3.978713 -0.56167108 193
-1.3277135 -3.9358654 -0.55642575 285
-1.3492604 -3.9201567 -0.55529165 187
-1.3824723 -3.9379556 -0.55926108 111
-1.4046069 -3.9238071 -0.55841047 113
-1.4272988 -3.9113951 -0.55784345 114
-1.4605901 -3.9276142 -0.56167108 117
-1.4892225 -3.9306116 -0.56351405 132
-1.5179465 -3.9334054 -0.56535697 128
-1.5456742 -3.9332302 -0.56677461 132
-1.5672045 -3.9172387 -0.56578225 134
-1.5975589 -3.9231339 -0.5681923 112
-1.624254 -3.9196587 -0.56918466 127
-1.6498125 -3.9132671 -0.56975168 127
-1.6761342 -3.9085288 -0.5706023 175
-1.7044388 -3.9081514 -0.57216173 139
-1.7344072 -3.9111927 -0.57428819 162
-1.7636629 -3.9122081 -0.57613111 166
-1.7896968 -3.9058123 -0.57683998 159
-1.8115389 -3.8902707 -0.57613111 156
-1.8442676 -3.897872 -0.57910818 168
-1.8741548 -3.8989723 -0.58109289 192
-1.9006497 -3.8927364 -0.58194351 232
-1.9319767 -3.8960767 -0.58435351 238
-1.9580725 -3.8885694 -0.58506233 249
-1.9868532 -3.8861766 -0.58662176 234
-2.0188708 -3.8897264 -0.5891735 243
-2.0533137 -3.897408 -0.59243411 266
-2.0641174 -3.8602943 -0.58846468 380
-2.0896537 -3.8510368 -0.58903176 362
-2.1137214 -3.8390095 -0.5891735 399
-2.1589649 -3.8648548 -0.59555298 363
-2.1987467 -3.8799539 -0.60023123 353
-2.2220187 -3.8655314 -0.60008943 340
-2.2541726 -3.8663619 -0.60249943 277
-2.2788615 -3.8541617 -0.60278296 293
-2.3070493 -3.8477468 -0.60405886 250
-2.3393586 -3.8478973 -0.60646886 269
-2.3665612 -3.8393693 -0.60746121 256
-2.4010923 -3.8424041 -0.61043829 361
-2.4256833 -3.8292713 -0.61072183 256
-2.452878 -3.8201461 -0.61171418 224
-2.4908524 -3.8274236 -0.61554182 244
-2.5191958 -3.8195045 -0.61681771 213
-2.5491865 -3.8138504 -0.61851889 166
-2.590306 -3.8243628 -0.6230554 191
-2.6198854 -3.8173742 -0.62461483 242
-2.64552 -3.8044779 -0.62518185 258
-2.6790774 -3.8027391 -0.62773365 217
-2.7173138 -3.8071766 -0.63141954 188
-2.7499042 -3.8032658 -0.63368779 167
-2.7860584 -3.8038895 -0.63680661 228
-2.8075767 -3.784338 -0.63638133 231
-2.8360968 -3.7741618 -0.63765723 196
-2.8711927 -3.7724419 -0.6404925 215
-2.9027476 -3.765729 -0.64247721 235
-2.9428568 -3.7696939 -0.64644665 241
-2.9751415 -3.7632132 -0.6485731 216
-3.0179758 -3.7696137 -0.65310961 286
-3.0379314 -3.7471802 -0.65240079 215
-3.077199 -3.7483606 -0.65608668 223
-3.1172276 -3.7499607 -0.65991431 178
-3.1554785 -3.7489381 -0.66331667 259
-3.1745694 -3.7249858 -0.66246611 265
-3.1954253 -3.7031887 -0.66204083 172
-3.2369764 -3.7051294 -0.666152 155
-3.2668648 -3.6933534 -0.66771138 162
-3.3125806 -3.6990469 -0.67267317 174
-3.3611484 -3.7072508 -0.67820203 201
-3.3838322 -3.6865573 -0.67820203 177
-3.419867 -3.680227 -0.68103731 194
-3.4593425 -3.6771975 -0.68458146 153
-3.5002744 -3.6752548 -0.68840909 166
-3.5241337 -3.6551335 -0.68869263 195
-3.5720801 -3.6596494 -0.69393796 134
-3.5923805 -3.6355505 -0.69351268 162
-3.6230218 -3.6218371 -0.69521385 118
-3.7078695 -3.661437 -0.70783097 202
-3.715384 -3.6241028 -0.70485389 129
-3.7518091 -3.6149731 -0.70768917 135
-3.7839587 -3.601438 -0.70967388 157
-3.8824401 -3.6500194 -0.72470099 223
-3.8960581 -3.618046 -0.72299981 226
-3.9181848 -3.5940721 -0.72299981 174
-3.9519019 -3.5805964 -0.72526807 138
-4.0033054 -3.582684 -0.73093867 165
-4.0526567 -3.5823081 -0.73618394 162
-4.0850015 -3.5664878 -0.73816866 139
-4.1255507 -3.5575154 -0.74171281 127
-4.1751876 -3.5558805 -0.74695814 144
-4.2166247 -3.546761 -0.75064403 140
-4.2489686 -3.5296764 -0.75262874 183
-4.3225904 -3.5462294 -0.76226878 126
-4.3588829 -3.5314784 -0.76496232 150
-4.3920646 -3.5139418 -0.76708877 157
-4.43607 -3.5047212 -0.77119994 174
-4.4770041 -3.4926567 -0.77474409 170
-4.515604 -3.4784093 -0.77786291 189
-4.547893 -3.4590254 -0.77984762 233
-4.5999045 -3.4542351 -0.78537649 237
-4.6305556 -3.4330194 -0.78707767 220
-4.6954689 -3.4366953 -0.79487473 189
-4.7485642 -3.4310074 -0.80054533 146
-4.7896762 -3.4161749 -0.80408949 150
-4.8364501 -3.4049551 -0.80862594 221
-4.8775749 -3.3893359 -0.81217009 172
-4.9186897 -3.3733394 -0.81571418 139
-4.9786463 -3.3697257 -0.82251894 142
-5.0280414 -3.3583555 -0.82748073 243
-5.0898809 -3.354676 -0.83456898 143
-5.1277966 -3.3347139 -0.83754605 143
-5.1948199 -3.3331203 -0.84548491 182
-5.2327394 -3.3123002 -0.84846199 180
-5.2915897 -3.3042457 -0.85498315 166
-5.3825669 -3.3153186 -0.86689144 139
-5.4180369 -3.2914796 -0.86944318 131
-5.4670033 -3.2754693 -0.87426323 138
-5.5202379 -3.2614987 -0.87979203 129
-5.5512657 -3.2340429 -0.88163501 141
-5.5933237 -3.2127378 -0.8853209 151
-5.6775374 -3.214936 -0.8959533 121
-5.7524781 -3.2109134 -0.90502626 110
-5.7850819 -3.182713 -0.90715271 120
-5.844533 -3.1688583 -0.91367394 110
-5.9110155 -3.1581242 -0.92132926 150
-5.9916005 -3.1540697 -0.93125278 127
-6.06181 -3.1436758 -0.93947518 97
-6.0959716 -3.1140766 -0.94188517 97
-6.1547585 -3.0966325 -0.9482646 141
-6.2517014 -3.0974786 -0.96073997 115
-6.2866039 -3.0668721 -0.9632917 119
-6.3517056 -3.0505228 -0.97066349 121
-6.432056 -3.0406806 -0.98044533 139
-6.4855962 -3.0174403 -0.98597413 107
-6.5408921 -2.9944811 -0.99178648 99
-6.6710649 -3.0046935 -1.0093654 169
-6.7074771 -2.9717228 -1.0122007 143
-6.7582555 -2.9447439 -1.0173042 148
-6.8353419 -2.9285572 -1.0265189 159
-6.9562726 -2.9299762 -1.0425384 112
-7.0198517 -2.9061682 -1.0496267 85
-7.0733123 -2.8775866 -1.0551555 84
-7.1735649 -2.8671927 -1.0679144 99
-7.2122164 -2.8314416 -1.071175 129
-7.2950335 -2.8124137 -1.0812403 114
-7.4204741 -2.8085918 -1.0978268 96
-7.4422073 -2.7647312 -1.0985357 120
-7.5241351 -2.742743 -1.1084592 111
-7.6228485 -2.7258513 -1.1209346 200
-7.7646055 -2.7229173 -1.1399311 100
-7.8045702 -2.6832683 -1.1434752 83
-7.8518448 -2.6457596 -1.1481534 108
-7.9224515 -2.6155283 -1.1563759 139
-8.0052261 -2.5884883 -1.1664412 136
-8.1436453 -2.5781553 -1.1848706 82
-8.1630936 -2.52931 -1.1854377 159
-8.2258263 -2.493531 -1.192526 159
-8.3263893 -2.468329 -1.2052848 118
-8.4202948 -2.4400575 -1.2170513 177
-8.4865408 -2.4029062 -1.2247066 281
-8.5545549 -2.3655608 -1.2326455 247
-8.6606569 -2.3377876 -1.2462549 237
-8.7322741 -2.2997267 -1.2547609 267
-8.8286781 -2.2672749 -1.2669526 252
-8.9720631 -2.2455003 -1.286091 238
-9.091464 -2.2161903 -1.3016851 246
-9.1867609 -2.1797864 -1.3137351 210
-9.2887011 -2.1438539 -1.3267776 240
-9.3963394 -2.1080515 -1.3406705 212
-9.5019493 -2.0705867 -1.35428 76
-1.6600552 -0.35142049 -0.20456471 16
-1.6621802 -0.34122798 -0.20456471 7
-0 -0 -0 10
-1.6691587 -0.32136557 -0.20499 18
-1.7041886 -0.31727031 -0.20981002 59
-1.7109748 -0.30768254 -0.21051884 54
-1.7186828 -0.29819241 -0.21136943 53
-1.7165745 -0.28698909 -0.21080238 45
-1.7280768 -0.27802119 -0.21222003 31
-1.7277936 -0.26711065 -0.21193649 42
-2.7242885 -0.40383783 -0.35596988 13
-2.7012327 -0.38350025 -0.35228398 51
-2.7359056 -0.37130713 -0.35696223 20
-0.96710169 -0.12546857 -0.10121792 12
-0.97080082 -0.119895 -0.10164321 13
-0.97348464 -0.11416583 -0.10192674 13
-0.92398816 -0.10263798 -0.094696723 7
-0.93444598 -0.097994894 -0.096114375 10
-17.370403 -1.70702 -2.4611821 43
-0 -0 -0 13
-0.89959943 -0.07764452 -0.090869062 11
-0.88624412 -0.071022242 -0.088884354 9
-0 -0 -0 6
-0.96309894 -0.0652638 -0.099800266 12
-0.98324227 -0.060562395 -0.10263557 28
-1.0152243 -0.056269012 -0.10717206 19
-1.0204941 -0.050280329 -0.10788088 20
-1.0464973 -0.045116697 -0.11156677 30
-1.0625823 -0.039273828 -0.11383501 18
-1.0628033 -0.032753207 -0.11383501 14
-0 -0 -0 8
-0.42078584 -0.0080373436 -0.021829443 41
-0.42676622 -0.0055267597 -0.022680035 64
-0.42085278 -0.0028730491 -0.021829443 105
-0.46441811 -0.00028023834 -0.02806711 162
-0.45550218 0.0025125798 -0.026791222 313
-0.45943746 0.0053569819 -0.027358284 427
-0.45939595 0.0081759365 -0.027358284 433
-0 -0 -0 6
-0.4333019 -0.0076163923 -0.026151368 67
-0.4412522 -0.0050551728 -0.027332462 91
-0.46105537 -0.0024702726 -0.030285198 199
-0.45908377 0.00035888588 -0.029989924 305
-0.45610586 0.0031577523 -0.029547015 409
-0.45706686 0.0059683784 -0.02969465 431
-0.46295488 0.0088816173 -0.030580472 496
-0.45695922 0.011576843 -0.02969465 394
-0.46083388 0.014501569 -0.030285198 434
-0.46370134 0.017437937 -0.030728109 455
-0.46259749 0.020240424 -0.030580472 402
-0.46444029 0.023175418 -0.030875746 396
-0.4652769 0.02607926 -0.031023383 429
-0.4651081 0.028933654 -0.031023383 390
-0.46788222 0.031986881 -0.031466294 431
-0.46669075 0.034784455 -0.031318657 379
-0.46745443 0.037726104 -0.031466294 376
-0.46425796 0.040339265 -0.031023383 355
-0.46400172 0.043187138 -0.031023383 323
-0.46372798 0.046033386 -0.031023383 354
-0.46343678 0.048877902 -0.031023383 294
-0.46116212 0.051502675 -0.030728109 277
-0.46181977 0.054446325 -0.030875746 231
-0.45951375 0.057036962 -0.030580472 242
-0.45327005 0.059093256 -0.02969465 233
-0.44701859 0.061075106 -0.02880883 244
-0.3957161 0.056586068 -0.021131717 141
-0.3924264 0.058577895 -0.020688808 176
-0.37544316 0.058416676 -0.018178981 224
-0.34871235 0.05647881 -0.014192788 272
-0.33470207 0.056334816 -0.012125873 297
-0.2797786 0.048922069 -0.0038582124 445
-0.27168566 0.049237829 -0.0026771182 661
-0 0 -0 4
-0 0 -0 2
-0 0 -0 3
-0 0 -0 1
-0 0 -0 2
-0 0 -0 1
-0 0 -0 1
-0 0 -0 1
-0 0 -0 1
-0 0 -0 1
-0 0 -0 1
-0 0 -0 1
-0 0 -0 1
-0 0 -0 1
-0 0 -0 1
-0 0 -0 1
-0 0 -0 1
-0 0 -0 1
-0 0 -0 1
-0 0 -0 1
-0 0 -0 1
-0 0 -0 1
-0 0 -0 1
-0 0 -0 1
-0 0 -0 1
-0 0 -0 1
-0 0 -0 1
-0 0 -0 1
-0 0 -0 1
-0 0 -0 1
-0 0 -0 1
-0 0 -0 3
-0 0 -0 2
-0 0 -0 1
-0 0 -0 1
-0 0 -0 1
-0 0 -0 3
-0 0 -0 1
-0 0 -0 1
-0 0 -0 1
-0 0 -0 1
-0 0 -0 1
-0 0 -0 1
-0 0 -0 1
-0 0 -0 1
-0 0 -0 1
-0 0 -0 1
-0 0 -0 2
-0 0 -0 1
-0 0 -0 3
-0 0 -0 1
-0 0 -0 1
-0 0 -0 1
-0 0 -0 1
-0 0 -0 1
-0 0 -0 5
-0 0 -0 2
-0 0 -0 1
-0 0 -0 1
-0 0 -0 1
-0 0 -0 1
-0 0 -0 1
-0 0 -0 1
-0 0 -0 1
-0 0 -0 1
-0 0 -0 1
-0 0 -0 1
-0 0 -0 2
-0 0 -0 1
-0 0 -0 1
-0 0 -0 1
-0 0 -0 1
-0 0 -0 1
-0 0 -0 1
-0 0 -0 1
-0 0 -0 2
-0 0 -0 1
-0 0 -0 3
-0 0 -0 6
-0 0 -0 6
-0 0 -0 4
-0 0 -0 6
-0 0 -0 6
-0 0 -0 5
-0 0 -0 5
-0 0 -0 6
-0 0 -0 5
-0 0 -0 5
-0 0 -0 6
-0 0 -0 3
-0 0 -0 5
-0 0 -0 6
-0 0 -0 4
-0 0 -0 5
-0 0 -0 5
-0 0 -0 5
-0 0 -0 4
-0 0 -0 5
-0 0 -0 6
-0 0 -0 3
-0 0 -0 3
-0 0 -0 4
-0 0 -0 4
-0 0 -0 4
-0 0 -0 4
-0 0 -0 2
-0 0 -0 2
-0 0 -0 4
-0 0 -0 1
-0 0 -0 2
-0 0 -0 1
-0 0 -0 1
-0 0 -0 1
-0 0 -0 1
-0 0 -0 1
-0 0 -0 1
-0 0 -0 1
-0 0 -0 1
-0 0 -0 1
-0 0 -0 1
-0 0 -0 1
-0 0 -0 1
-0 0 -0 2
-0 0 -0 1
-0 0 -0 3
-0 0 -0 2
-0 0 -0 3
-0 0 -0 2
-0 0 -0 2
-0 0 -0 5
-0 0 -0 2
-0 0 -0 3
-0 0 -0 5
-0 0 -0 5
-0 0 -0 6
-0 0 -0 5
-0 0 -0 5
-0 0 -0 6
-0 0 -0 6
-0 0 -0 5
-0 0 -0 7
-0 0 -0 8
-0 0 -0 6
-0 0 -0 7
-0 0 -0 5
-0 0 -0 5
-0 0 -0 8
-0 0 -0 7
-0 0 -0 5
-0 0 -0 6
-0 0 -0 3
-0 0 -0 5
-0 0 -0 6
-0 0 -0 5
-0 0 -0 4
-0 0 -0 5
-0 0 -0 5
-0 0 -0 3
-0 0 -0 4
-0 0 -0 3
-0 0 -0 6
-0 0 -0 3
-0 0 -0 5
-0 0 -0 3
-0 0 -0 5
-0 0 -0 3
-0 0 -0 5
-0 0 -0 4
-0 0 -0 3
-0 0 -0 6
-0 0 -0 6
-0 0 -0 3
-0 0 -0 3
-0 0 -0 4
-0 0 -0 5
-0 0 -0 4
-0 0 -0 4
-0 0 -0 4
-0 0 -0 4
-0 0 -0 5
-0 0 -0 4
-0 0 -0 5
-0 0 -0 6
-0 0 -0 3
-0 0 -0 6
-0 0 -0 6
-0 0 -0 9
-0 0 -0 8
-0 0 -0 6
-0 0 -0 10
-0 0 -0 7
-0 0 -0 9
-0 0 -0 9
-0 0 -0 7
-0.052151751 0.26408786 -0.0016436606 970
-0 0 -0 5
-0 0 -0 4
-0 0 -0 3
-0 0 -0 2
-0 0 -0 1
-0 0 -0 1
-0 0 -0 1
-0 0 -0 1
-0 0 -0 2
-0 0 -0 1
-0 0 -0 2
-0 0 -0 1
-0 0 -0 3
-0 0 -0 1
-0 0 -0 2
-0 0 -0 1
-0 0 -0 1
-0 0 -0 1
-0 0 -0 1
-0 0 -0 1
-0 0 -0 4
-0 0 -0 2
-0.015798857 0.29249865 -0.0051869438 1842
-0.013809443 0.28863868 -0.0045963963 1768
-0.011953065 0.28674173 -0.0043011229 1677
-0.010193425 0.28680968 -0.0043011229 1676
-0.0084638065 0.28785539 -0.0044487598 1699
-0.0066730622 0.28691319 -0.0043011229 1648
-0.0049855495 0.29090419 -0.0048916698 1694
-0.003200501 0.29092932 -0.0048916698 1742
-0.0013969317 0.28797641 -0.0044487598 1614
0.00037034357 0.2840234 -0.0038582124 1566
0.0021190753 0.28500479 -0.0040058494 1596
0.003867792 0.28498644 -0.0040058494 1569
0.0056163631 0.28495735 -0.0040058494 1539
0.007340515 0.28392878 -0.0038582124 1490
0.0091128051 0.28486696 -0.0040058494 1311
0.011078579 0.29073593 -0.0048916698 1092
0.012438263 0.28078115 -0.0034153021 912
0.014693988 0.29156592 -0.0050393068 794
0.016101046 0.28455752 -0.0040058494 509
0.023844585 0.38218462 -0.018621892 195
0.0270555 0.39485943 -0.020541171 168
0.030277437 0.40553603 -0.022165176 131
0.03347389 0.41421574 -0.023493906 136
0.036523595 0.41991496 -0.024379726 100
0 0 -0 8
0.043417662 0.43715227 -0.027037188 120
0 0 -0 10
0.053027976 0.47492442 -0.032795023 60
0 0 -0 10
0.0555849 0.44773442 -0.02880883 69
0 0 -0 18
3.6075699 26.572283 -3.9643629 67
3.7712417 26.554543 -3.965101 94
3.9343965 26.53286 -3.9653962 134
4.1010523 26.533632 -3.9692349 83
4.2678661 26.53336 -3.9730735 142
4.4297762 26.501795 -3.9723351 111
4.5912905 26.468267 -3.9714494 119
4.7548351 26.446413 -3.9724829 76
4.9152083 26.407017 -3.9710064 41
5.0861187 26.422977 -3.9780931 52
5.2531667 26.416494 -3.9819317 60
5.4173436 26.394421 -3.9835556 88
5.5834951 26.381004 -3.986656 82
5.7517929 26.376204 -3.9912326 99
5.9180751 26.360682 -3.994333 85
6.0854964 26.348928 -3.9981716 84
6.2529955 26.336111 -4.0020103 94
6.421504 26.326075 -4.0064392 80
6.5858002 26.297689 -4.0082111 60
6.7433438 26.242416 -4.0059962 26
5.1202574 19.430216 -2.9608755 68
2.9022727 10.744788 -1.6228433 101
2.9705205 10.735356 -1.624172 142
2.9325504 10.350563 -1.5673319 60
3.4787908 11.997591 -1.8261391 41
3.5790577 12.0661 -1.8401647 122
3.6556098 12.052431 -1.8414934 138
3.7376931 12.056225 -1.8456272 87
3.8393714 12.120751 -1.8593575 29
2.9002748 8.9642811 -1.3678745 135
2.9614275 8.9650993 -1.3708273 213
3.0087981 8.9242659 -1.3672839 216
4.2074089 12.231442 -1.8922805 72
4.1789165 11.910481 -1.8456272 64
3.2934837 9.2054148 -1.4208761 239
3.3451612 9.1720247 -1.4188093 200
3.3937967 9.1309309 -1.4155612 157
3.5915992 9.4845428 -1.4753541 203
3.9212723 10.166417 -1.588001 168
3.8848763 9.8908434 -1.5476961 122
3.9326406 9.8346777 -1.5425289 125
4.2490358 10.439713 -1.6439553 81
4.1275821 9.9656925 -1.5716133 67
4.8514881 11.513326 -1.8264344 105
3.6047525 8.4097843 -1.3272744 131
4.3217788 9.9143219 -1.5758948 56
5.0144997 11.313569 -1.808718 22
3.7885971 8.407835 -1.3380519 149
4.5504827 9.935605 -1.5927254 125
4.124352 8.861062 -1.4204333 57
5.2141094 11.025266 -1.7819958 62
4.1338453 8.6038456 -1.3863292 84
4.0360479 8.269886 -1.3350992 294
4.108675 8.2892752 -1.342481 238
4.218595 8.3814096 -1.3621167 179
5.50665 10.775586 -1.7678226 118
4.4509287 8.5792236 -1.4041932 286
4.5961094 8.7276525 -1.4338682 64
4.368938 8.1741705 -1.3449908 139
5.7849975 10.665892 -1.7726946 126
5.712049 10.378909 -1.72988 131
5.7818933 10.354892 -1.7317992 47
4.8216953 8.5119934 -1.421762 179
4.816679 8.3827686 -1.4046361 200
4.8759913 8.3667288 -1.4069983 128
5.7781453 9.7764816 -1.6566521 216
5.837007 9.7391472 -1.6563568 251
7.8945961 12.991082 -2.230664 40
8.7564888 14.212223 -2.4533002 69
8.1005774 12.968722 -2.2439513 51
8.0561943 12.723236 -2.2094042 66
5.4016905 8.4160032 -1.4542421 123
5.5670195 8.5576353 -1.4853934 158
5.6177902 8.5208387 -1.4849505 52
8.4912815 12.709202 -2.2430654 53
5.7125049 8.437335 -1.4824407 131
8.7450714 12.747587 -2.2690496 44
5.7326365 8.2472134 -1.4607381 174
5.7529521 8.1690245 -1.4529133 382
5.7794175 8.1005602 -1.4468602 79
5.5208116 7.6384869 -1.3683175 190
5.4851995 7.4919438 -1.3475007 355
5.4992533 7.4152465 -1.3395283 92
11.340734 15.098132 -2.7801681 30
6.1036267 8.022583 -1.4662006 334
6.1569633 7.9904647 -1.4672341 112
10.161335 13.021673 -2.4270208 25
0 0 -0 15
7.2070761 9.0055428 -1.6832267 29
9.7473459 12.027899 -2.2724452 41
11.105862 13.533725 -2.5748053 24
12.313148 14.818641 -2.8374512 36
11.305489 13.437288 -2.5827777 28
11.841806 13.900722 -2.6873045 29
11.093581 12.86165 -2.4968531 25
0 0 -0 18
11.525723 13.035753 -2.5588605 21
11.705758 13.076801 -2.5813015 44
12.566817 13.866591 -2.7549222 24
13.552986 14.771626 -2.9539366 14
12.342275 13.287401 -2.6685548 12
12.582792 13.380744 -2.7032495 20
13.644602 14.332688 -2.9154034 30
13.677383 14.191724 -2.9035923 47
0 0 -0 13
11.936457 12.084873 -2.4970007 49
12.008286 12.009307 -2.4965577 25
12.203468 12.055652 -2.522099 18
12.161832 11.86795 -2.4980342 26
11.65124 11.230931 -2.3771198 65
15.075639 14.354545 -3.0687981 17
0 0 -0 19
10.81042 10.043154 -2.1640797 26
11.043813 10.134454 -2.1989222 28
15.217463 13.793593 -3.027312 21
9.3097477 8.3349638 -1.8267297 24
9.5903893 8.4807978 -1.8724971 77
0 0 -0 18
12.785069 11.029423 -2.4819417 44
12.855515 10.953333 -2.4825323 61
11.63678 9.7922802 -2.2316973 39
12.286897 10.211258 -2.3462636 28
12.434944 10.205955 -2.3627989 22
12.524224 10.15126 -2.3679662 110
15.939685 12.758468 -3.0091529 39
12.689753 10.029923 -2.3759387 77
12.751836 9.9524803 -2.3760862 84
12.731191 9.8112593 -2.3607321 104
12.955651 9.8581333 -2.391588 74
13.04199 9.7980585 -2.3964601 72
11.753029 8.7173481 -2.1457727 27
11.550946 8.4580812 -2.0985291 85
11.810225 8.5371189 -2.1367669 54
0 0 -0 11
13.680056 9.6354465 -2.4592056 24
0 0 -0 15
13.527331 9.2816229 -2.4103379 18
0 0 -0 16
14.284091 9.5452089 -2.5259376 32
0 0 -0 8
20.394676 13.269629 -3.5934992 17
14.067019 9.0300789 -2.4566958 24
14.097095 8.9277191 -2.4522667 47
14.203614 8.8735447 -2.4614203 17
0 0 -0 14
21.531637 13.087286 -3.7226813 7
14.528262 8.708744 -2.4899142 10
0 0 -0 12
0 0 -0 9
0 0 -0 9
17.044664 9.6567097 -2.8857284 25
14.140079 7.8968143 -2.379039 24
0 0 -0 8
18.323599 9.9403095 -3.0732272 8
0 0 -0 13
19.297396 10.164106 -3.2171731 24
30.88512 16.026417 -5.1554966 10
30.939724 15.814549 -5.1482625 12
31.007025 15.609733 -5.1433902 15
31.052599 15.394582 -5.1351228 19
18.85084 9.2016287 -3.0927153 18
19.520258 9.3805323 -3.1942892 29
19.395061 9.174304 -3.1641715 41
19.519133 9.0868511 -3.1753919 27
30.861904 14.137808 -5.0286765 19
30.998566 13.970935 -5.0369439 51
0 0 -0 9
0 0 -0 8
0 0 -0 8
0 0 -0 11
30.646828 12.69626 -4.9132247 27
30.64171 12.474412 -4.8999372 24
30.665331 12.265226 -4.8915219 18
30.674654 12.051158 -4.8810396 7
30.672356 11.833523 -4.8689337 27
30.628773 11.601305 -4.8504786 23
30.652102 11.395574 -4.8429494 23
30.667557 11.187622 -4.8343863 21
30.627605 10.960581 -4.8172607 14
30.594425 10.7374 -4.8014636 10
30.563404 10.516328 -4.7862568 23
30.542072 10.299835 -4.7728219 15
30.530508 10.087724 -4.7611585 16
30.503378 9.8715763 -4.7472806 15
30.477575 9.6570377 -4.7338457 18
30.492802 9.4563732 -4.7270546 23
30.489679 9.2507162 -4.7176056 19
30.483286 9.0448914 -4.7078619 26
30.491667 8.8441782 -4.7006273 24
30.461622 8.6331854 -4.6876354 23
30.460642 8.4313374 -4.679368 22
30.44783 8.2269897 -4.669476 22
30.426968 8.0213528 -4.6585512 46
30.412392 7.8182521 -4.648807 29
30.314924 7.5952005 -4.626514 17
29.323246 7.1558008 -4.4670663 10
29.058678 6.9025931 -4.4198222 17
28.89908 6.6776223 -4.3889661 11
28.067154 6.3042212 -4.2555027 9
27.617323 6.0254126 -4.1809459 11
20.813929 4.4073682 -3.1373014 44
20.723352 4.2554984 -3.1194375 65
20.486197 4.0759549 -3.079428 81
20.370968 3.9232407 -3.0581682 75
20.303259 3.7811499 -3.0442903 72
20.203428 3.634434 -3.0256882 77
19.998297 3.4709871 -2.9912887 81
19.788027 3.3095434 -2.9562988 79
19.510138 3.1401238 -2.9112697 84
19.230925 2.9742408 -2.8662403 39
19.227289 2.8529918 -2.8629923 58
19.16218 2.7232707 -2.8505909 37
18.62187 2.5300019 -2.7667332 28
18.285904 2.3701713 -2.7138791 39
18.116545 2.2352746 -2.6862712 47
17.794947 2.0848196 -2.635927 34
17.531179 1.9449414 -2.5944409 32
17.080463 1.7889043 -2.5250518 51
16.644258 1.6400255 -2.4580247 69
16.519085 1.525405 -2.4377985 74
16.067957 1.3843588 -2.3688519 65
15.89573 1.2713076 -2.3418345 66
15.594501 1.1509558 -2.2956243 85
15.425622 1.0433631 -2.2693448 72
15.15335 0.93157244 -2.2277112 86
14.983988 0.82890171 -2.2015796 92
14.617361 0.71867454 -2.1460681 86
14.521695 0.6246748 -2.1311567 101
14.276186 0.52636951 -2.0939522 86
14.042877 0.43149614 -2.0586672 78
13.944408 0.34284019 -2.0436082 91
13.663432 0.2520473 -2.001384 102
13.450116 0.16555752 -1.9693469 112
13.281755 0.081977233 -1.944101 122
13.075299 0.00046684348 -1.9132448 115
12.873295 -0.07853689 -1.883127 112
12.751917 -0.15605164 -1.8651153 134
12.553933 -0.23068307 -1.8357356 115
12.380239 -0.30349609 -1.8100468 130
12.249629 -0.3755185 -1.790854 133
12.036571 -0.44293347 -1.7594073 125
11.880466 -0.51020765 -1.7365236 139
11.817841 -0.58018732 -1.7276654 131
11.597787 -0.64074814 -1.695333 168
11.444572 -0.70275056 -1.6730398 180
11.328537 -0.76542956 -1.6563568 157
11.147068 -0.82191354 -1.6299299 188
11.057027 -0.88352317 -1.617233 181
10.888807 -0.93736041 -1.592873 194
10.800122 -0.99652487 -1.5804715 189
10.616632 -1.0453362 -1.5538969 190
10.510668 -1.1000645 -1.5389856 181
10.397553 -1.1527694 -1.5230408 194
10.256687 -1.2009087 -1.5029622 175
10.170596 -1.2541395 -1.4911512 173
10.040104 -1.3006433 -1.4726967 178
9.9074669 -1.3453274 -1.4539468 234
9.8187304 -1.3946909 -1.4418405 203
9.690629 -1.437214 -1.4238288 225
9.5789976 -1.4807864 -1.408327 188
9.4759874 -1.524457 -1.3941538 204
9.394268 -1.5705068 -1.3832288 175
9.2704391 -1.6083435 -1.3659552 192
9.1591587 -1.6469954 -1.3506011 194
9.1002626 -1.6941155 -1.3432192 202
8.9605255 -1.7250596 -1.3235835 218
8.8692579 -1.7639982 -1.3113296 201
8.7410364 -1.7943263 -1.2934656 178
8.6582584 -1.832773 -1.2825404 211
8.556015 -1.8660576 -1.2686626 203
8.4681664 -1.9014069 -1.2569993 222
8.375392 -1.9346362 -1.2445978 217
8.3239088 -1.9766232 -1.2385447 226
8.26262 -2.015708 -1.2310152 214
8.1455193 -2.0401807 -1.2149228 245
7.9316835 -2.0384336 -1.1839191 169
7.4962993 -1.9756746 -1.1186637 331
7.4792619 -2.0203445 -1.1179254 714
7.4753032 -2.0685718 -1.1192542 681
7.4624701 -2.1144006 -1.1192542 647
7.4617052 -2.1637299 -1.1211735 527
7.4587183 -2.2125669 -1.1227975 459
7.4544668 -2.2611613 -1.1242738 477
7.3998303 -2.2942662 -1.1179254 332
7.3318696 -2.3226054 -1.1095102 340
7.2647829 -2.350502 -1.1012425 336
7.2032666 -2.3795245 -1.0938606 293
7.1294851 -2.403774 -1.0845596 316
7.0397806 -2.4217396 -1.0727485 296
6.9762583 -2.4478636 -1.0650715 330
6.9331698 -2.480629 -1.0606424 316
6.8583503 -2.5014374 -1.0511936 314
6.8002267 -2.5276234 -1.0444024 315
6.7179923 -2.5440853 -1.0337725 391
6.6644211 -2.5706668 -1.0277194 364
6.5877633 -2.5876484 -1.0179753 350
6.5313544 -2.6118653 -1.0114794 380
6.4437504 -2.622812 -0.99996364 393
6.3891573 -2.6464067 -0.99376291 366
6.3381643 -2.6709669 -0.98815268 310
6.2643847 -2.685261 -0.97885162 385
6.211524 -2.7078407 -0.97294611 382
6.1577191 -2.7294724 -0.96689302 402
6.0939651 -2.7460775 -0.95921588 313
6.0338378 -2.7636509 -0.9521293 346
5.9773121 -2.7822599 -0.94563329 387
5.9368811 -2.8078904 -0.94179475 370
5.8482208 -2.8100026 -0.92998379 368
5.8033142 -2.8323872 -0.92540705 358
5.753037 -2.8516922 -0.91994452 311
5.6868405 -2.862484 -0.91182446 306
5.6515555 -2.8883231 -0.90887177 342
5.6047544 -2.9079168 -0.90399975 344
5.5351734 -2.9150641 -0.89528918 322
5.4866529 -2.9326563 -0.89012188 334
5.4389949 -2.9502349 -0.88510221 301
5.407793 -2.9763999 -0.88288766 297
5.3566132 -2.9912038 -0.87727749 279
5.2968507 -3.0006177 -0.87019092 325
5.2371755 -3.0094121 -0.86310434 299
5.1844301 -3.0215714 -0.85719889 318
5.1530204 -3.0457778 -0.85498434 317
5.1062388 -3.0605609 -0.85011232 270
5.0535545 -3.0712903 -0.84420681 267
5.0000896 -3.0809703 -0.83815372 267
4.9466982 -3.0901105 -0.83210063 336
4.9000683 -3.1029451 -0.82722861 325
4.8476424 -3.1115851 -0.82132316 317
4.8135352 -3.1315639 -0.81866568 298
4.7686315 -3.1441646 -0.81408894 307
4.7369137 -3.1651237 -0.81187439 270
4.6821861 -3.1702874 -0.80552602 246
4.6561208 -3.1944814 -0.80434489 248
4.6104436 -3.2049274 -0.79962051 245
4.5672407 -3.2166424 -0.79533905 243
4.5152116 -3.2216301 -0.7894336 247
4.4544768 -3.2197285 -0.7819041 239
4.4242625 -3.2394052 -0.77998483 213
4.4003305 -3.2635453 -0.77924663 224
4.3517532 -3.2691004 -0.77393174 226
4.3095722 -3.2789736 -0.76979792 214
4.2658677 -3.2872455 -0.76536882 184
4.2385998 -3.3078825 -0.76404005 101
4.1755433 -3.3001013 -0.75592005 117
4.1382265 -3.3120646 -0.75267202 193
4.1339631 -3.3504705 -0.75577241 164
4.0865669 -3.3538141 -0.75060511 107
4.0111394 -3.3333166 -0.73997527 85
3.9777453 -3.3470414 -0.73746544 93
3.9661682 -3.3790817 -0.73923707 105
3.9618368 -3.4175653 -0.74248511 181
3.9117384 -3.4164391 -0.73672724 128
3.8803284 -3.431205 -0.73466033 104
3.8540432 -3.4503322 -0.7336269 126
3.8232725 -3.4652812 -0.73170757 146
3.7815318 -3.4699533 -0.72757375 204
3.7471254 -3.4809754 -0.72491634 154
3.7076828 -3.4869635 -0.72122538 113
3.6847847 -3.5082841 -0.7209301 122
3.6318541 -3.5006292 -0.71443409 113
3.5947318 -3.507653 -0.71118611 128
3.567512 -3.5240839 -0.71000499 174
3.5164466 -3.5165362 -0.70380425 120
3.4864621 -3.5296035 -0.70203263 113
3.45645 -3.5424354 -0.70026094 120
3.418175 -3.5464876 -0.69671768 124
3.3827093 -3.5530689 -0.69376493 112
3.3472919 -3.5593493 -0.69081223 135
3.3307745 -3.5856175 -0.6919933 163
3.293999 -3.5899558 -0.68874532 168
3.2553031 -3.5917802 -0.68505436 186
3.2312238 -3.6094763 -0.68461144 202
3.1729794 -3.588486 -0.67649144 141
3.1352856 -3.5900102 -0.67294818 112
3.1035078 -3.5979474 -0.67073363 96
3.0743167 -3.6086414 -0.66910958 129
3.0451117 -3.619113 -0.66748559 90
3.0108366 -3.6232772 -0.66468048 88
2.9791355 -3.6302156 -0.66246593 87
2.9543138 -3.6453536 -0.66187543 73
2.917675 -3.645653 -0.65847975 69
2.8651986 -3.6254668 -0.65124553 112
2.8392479 -3.6383011 -0.65035975 96
2.8035879 -3.6384194 -0.64711171 85
2.7740231 -3.6461086 -0.64534009 80
2.739717 -3.6472464 -0.64238733 98
2.7108049 -3.6552501 -0.64076334 72
2.6719642 -3.6494715 -0.63662952 114
2.6529977 -3.6706069 -0.63751531 121
2.6034238 -3.6489775 -0.63057637 68
2.5826938 -3.667309 -0.63101929 79
2.5590138 -3.6814628 -0.63072401 68
2.5346978 -3.6946487 -0.63028115 81
2.5080981 -3.7043993 -0.62924767 105
2.482024 -3.7147851 -0.62836182 121
2.4461162 -3.7101283 -0.62481856 83
2.4233053 -3.7250676 -0.62481856 110
2.3950601 -3.7315435 -0.62334222 99
2.3641808 -3.7336357 -0.62112767 76
2.3370347 -3.7413614 -0.61994654 61
2.3093641 -3.7480528 -0.61861783 92
2.2760484 -3.745249 -0.61566508 75
2.2413292 -3.7396333 -0.61226946 73
2.2087781 -3.737139 -0.60946435 62
2.1828175 -3.7454946 -0.6085785 86
2.1578231 -3.7553875 -0.60798794 62
2.1337647 -3.7668359 -0.60769272 91
2.1062715 -3.7720861 -0.60636395 108
2.0711627 -3.763278 -0.60267305 109
2.0395434 -3.7602673 -0.60001558 112
2.0150335 -3.7700942 -0.59957266 94
1.9890972 -3.7771368 -0.59868687 100
1.9626948 -3.7831254 -0.59765339 84
1.936294 -3.7889323 -0.59661996 93
1.9090064 -3.7927914 -0.5952912 119
1.8826231 -3.7982304 -0.59425777 105
1.8545096 -3.7999337 -0.59263372 87
1.8273032 -3.8032184 -0.59130502 106
1.8013951 -3.8089945 -0.59041917 87
1.7721455 -3.8074231 -0.58835226 110
1.7471025 -3.8146284 -0.5877617 92
1.7224443 -3.8225715 -0.58731884 94
1.6965519 -3.8276432 -0.58643299 88
1.6659185 -3.8216622 -0.58377552 94
1.6354226 -3.8154497 -0.58111805 57
1.6089075 -3.8181217 -0.57993698 76
1.5850711 -3.827008 -0.57978934 96
1.5611862 -3.8357458 -0.5796417 138
1.5321115 -3.8314781 -0.57742715 138
1.5085732 -3.840807 -0.57742715 72
1.484266 -3.8481455 -0.57713187 100
1.4578235 -3.849781 -0.5759508 93
1.4317616 -3.8521645 -0.57491732 75
1.4040307 -3.8497274 -0.57314569 89
