# .PCD v0.7 - Point Cloud Data file format
VERSION 0.7
FIELDS x y z intensity
SIZE 4 4 4 4
TYPE F F F F
COUNT 1 1 1 1
WIDTH 1470
HEIGHT 1
VIEWPOINT 0 0 0 1 0 0 0
POINTS 1470
DATA ascii
29.559082 0.35296685 -1.8123068 13
28.432915 0.16508736 -1.7417471 24
27.695835 -0.0091032917 -1.6956024 25
27.199238 -0.17581402 -1.6645687 29
26.307459 -0.33144709 -1.6088703 26
25.706205 -0.48161584 -1.5714049 27
24.894598 -0.61919773 -1.5208268 24
24.374588 -0.75591725 -1.4885442 20
23.612495 -0.87729979 -1.4411507 36
23.02236 -0.99683738 -1.4045596 37
22.369865 -1.1061078 -1.3640971 31
21.884335 -1.2167264 -1.3341248 35
21.384361 -1.3205675 -1.3032784 31
20.976559 -1.4246142 -1.2782391 47
20.311508 -1.5046694 -1.2370898 41
19.947729 -1.6008272 -1.2148603 47
19.470192 -1.6827747 -1.1855125 39
19.074903 -1.7665679 -1.1613475 54
18.765743 -1.8541178 -1.1426148 51
18.264669 -1.917814 -1.1118308 24
17.935141 -1.9945278 -1.0918493 37
17.615284 -2.0684359 -1.0724922 68
17.26054 -2.1342063 -1.0509497 60
16.98979 -2.206635 -1.0347148 71
16.649588 -2.2663949 -1.0141089 78
16.318195 -2.3233314 -0.99406499 70
16.033142 -2.383188 -0.97695583 93
15.670063 -2.4275594 -0.95491374 90
15.479486 -2.4953768 -0.94379902 87
15.184337 -2.5434625 -0.92606544 101
14.847891 -2.5808403 -0.90570933 118
14.66578 -2.6419799 -0.89515662 126
14.43541 -2.6920135 -0.88154423 124
14.181465 -2.7347834 -0.8664332 121
14.067516 -2.8024356 -0.86025143 105
13.664888 -2.8094761 -0.83564925 127
13.530232 -2.8684211 -0.82815617 154
13.317369 -2.9087758 -0.81566775 112
13.116212 -2.9492564 -0.80392867 156
12.908259 -2.9858043 -0.79175246 148
12.695505 -3.0187583 -0.77926397 156
12.54101 -3.0634308 -0.77052212 162
12.30223 -3.0851929 -0.75634772 164
12.184482 -3.1352422 -0.74997866 168
12.014475 -3.1702085 -0.74023765 162
11.811749 -3.1943462 -0.72837365 177
11.68709 -3.2377076 -0.72156745 156
11.517221 -3.266856 -0.7118265 161
11.327313 -3.288198 -0.70077425 155
11.169155 -3.3167133 -0.69178259 224
11.039728 -3.3521154 -0.68466419 206
10.925542 -3.39079 -0.67854482 199
10.716166 -3.3980136 -0.66618127 211
10.588775 -3.4292514 -0.65918779 229
10.444351 -3.4534137 -0.6510703 191
10.349207 -3.4925342 -0.64619982 220
10.182261 -3.5059159 -0.63658375 225
10.064511 -3.5345845 -0.63021463 253
9.9280052 -3.5552099 -0.62259668 261
9.8038168 -3.5787449 -0.61579049 246
9.6432371 -3.587316 -0.60654902 219
9.5342541 -3.6135132 -0.60074192 247
9.4364882 -3.6428237 -0.59568411 267
9.2987852 -3.6553659 -0.58794129 166
9.1585093 -3.6652446 -0.58001113 136
9.0803909 -3.6987743 -0.57626462 134
9.007741 -3.7337778 -0.57289273 149
8.8890257 -3.7486334 -0.56639874 179
8.7943172 -3.7724071 -0.56152827 185
8.7399035 -3.8127246 -0.55940521 231
8.5895386 -3.8100142 -0.55072576 281
8.5259686 -3.8445902 -0.54797834 222
8.4214735 -3.8598125 -0.54242098 191
8.2745972 -3.8540874 -0.53392881 266
8.1804314 -3.8714764 -0.52905834 230
8.1097527 -3.8991034 -0.52581137 245
7.9753737 -3.8949051 -0.51813096 290
7.8896356 -3.9131601 -0.5138225 330
7.8111062 -3.9341035 -0.51001352 297
7.6944113 -3.9346869 -0.50351954 210
7.6001506 -3.9454873 -0.4985866 236
7.4998689 -3.9520228 -0.49321657 193
7.4024367 -3.95889 -0.48803386 285
7.3148532 -3.96995 -0.48353803 167
7.2169251 -3.9743068 -0.47829288 269
7.0808883 -3.9561882 -0.47030029 157
7.0243568 -3.9813476 -0.46798995 204
6.930582 -3.9845672 -0.46299458 204
6.8232408 -3.9787414 -0.45700014 284
6.7840962 -4.0118942 -0.45593861 284
6.7071443 -4.0221272 -0.45212963 317
6.6456728 -4.0409031 -0.44944462 289
6.538352 -4.0307875 -0.44338775 350
6.4449487 -4.0279746 -0.43832994 316
6.3788047 -4.041265 -0.43527025 194
6.3370934 -4.06954 -0.43402141 199
6.2593117 -4.0740395 -0.43008757 372
6.1783829 -4.0755396 -0.42590395 211
6.1292 -4.0972838 -0.42409313 212
6.028758 -4.0838661 -0.4184109 261
5.9566884 -4.0885797 -0.4148517 214
5.9159226 -4.114223 -0.41366529 203
5.8579359 -4.1274452 -0.41116759 326
5.7853909 -4.1296725 -0.40754595 196
5.7502389 -4.1580734 -0.40679663 199
5.6626277 -4.1478553 -0.4019886 261
5.5713539 -4.1337461 -0.39686835 181
5.5530648 -4.1732512 -0.39743033 199
5.4765339 -4.1685495 -0.39343402 187
5.415288 -4.1746478 -0.39062414 194
5.3439493 -4.1721659 -0.3870025 223
5.2947645 -4.1863031 -0.38512921 211
5.2136707 -4.1744137 -0.38069582 157
5.1716809 -4.1931229 -0.37938455 151
5.1389136 -4.2190757 -0.37882257 231
5.0599809 -4.2064948 -0.37451407 415
5.0210967 -4.2265348 -0.37345254 369
4.9548163 -4.2229447 -0.37014312 452
4.9265451 -4.2513108 -0.36995578 517
4.8402491 -4.2289157 -0.3649604 310
4.8015032 -4.2472911 -0.3638989 166
4.7798123 -4.2806687 -0.36427355 142
4.699491 -4.2609682 -0.35971528 265
4.6328254 -4.2525959 -0.35628095 180
4.5781369 -4.2544403 -0.35384572 162
4.5374103 -4.2687707 -0.35259688 153
4.4930677 -4.2793198 -0.3510358 149
4.4523587 -4.2929506 -0.34978697 150
4.4037976 -4.2985735 -0.34785128 147
4.3567553 -4.3051658 -0.34604046 139
4.3189697 -4.3205214 -0.34504136 213
4.2341852 -4.2879858 -0.33985868 147
4.2119756 -4.3181729 -0.34023333 155
4.1819386 -4.3403416 -0.33992112 119
4.1194558 -4.3283191 -0.33667412 247
4.0688987 -4.3280587 -0.33448866 147
4.0212164 -4.3302679 -0.33255294 90
3.9756849 -4.3342624 -0.33080456 123
3.9195366 -4.326026 -0.32805711 214
3.8975768 -4.3552012 -0.32849419 193
3.8615286 -4.3685637 -0.32762 147
3.8129947 -4.3673606 -0.32555944 140
3.773093 -4.375555 -0.32431057 207
3.749409 -4.4024239 -0.32462278 186
3.6914957 -4.388679 -0.32162556 117
3.656209 -4.4012651 -0.32081383 135
3.6145785 -4.4058661 -0.31937766 132
3.5862203 -4.4264107 -0.31925276 224
3.5166051 -4.39533 -0.3150067 156
3.4877138 -4.414475 -0.31481937 120
3.4452181 -4.4161162 -0.31325832 128
3.4010072 -4.4150305 -0.31150994 129
3.3635845 -4.4223089 -0.31044844 115
3.314218 -4.4133306 -0.30813807 108
3.2799451 -4.4239612 -0.30738875 104
3.2574527 -4.4504471 -0.3078883 123
3.2090473 -4.4412231 -0.30564037 185
3.1857917 -4.4665184 -0.30607748 98
3.1359248 -4.4541502 -0.30364224 109
3.0908854 -4.447897 -0.30170652 127
3.0635355 -4.4667788 -0.30170652 127
3.0260034 -4.4706125 -0.30058256 131
2.9841065 -4.467514 -0.29895908 124
2.9368715 -4.4557366 -0.29671115 133
2.9051249 -4.4669785 -0.29621163 116
2.8744285 -4.4796796 -0.29583696 109
2.8383493 -4.4837379 -0.29483789 147
2.7981012 -4.4807491 -0.29333928 105
2.7616599 -4.4833856 -0.29227775 117
2.7351344 -4.5019526 -0.29240265 152
2.6823332 -4.4766946 -0.28934297 92
2.6406038 -4.4690061 -0.28759462 71
2.6146393 -4.4877119 -0.28778192 83
2.5850663 -4.5002084 -0.28753215 100
2.547081 -4.497745 -0.28622088 155
2.5038745 -4.4853988 -0.28422272 78
2.4705346 -4.4901834 -0.28347343 98
2.4415102 -4.5026255 -0.28328609 99
2.4128964 -4.5157609 -0.28316122 96
2.3753831 -4.5119328 -0.28184992 112
2.337549 -4.5069294 -0.28047621 87
2.2966888 -4.49541 -0.27866536 68
2.2632329 -4.4978261 -0.27785364 67
2.2293913 -4.4991069 -0.27697945 87
2.2056801 -4.5207753 -0.27754143 115
2.1727169 -4.523427 -0.27679211 135
2.1436415 -4.5339661 -0.27660477 194
2.113677 -4.5425091 -0.27629256 158
2.0679078 -4.5163684 -0.27360755 142
2.0401571 -4.5289717 -0.27360755 111
2.007076 -4.529541 -0.27279583 108
1.9760573 -4.534451 -0.27229628 132
1.9411254 -4.5299759 -0.27117231 111
1.9086465 -4.5307627 -0.27042302 110
1.871652 -4.5202556 -0.26892442 93
1.8393699 -4.5205603 -0.2681751 87
1.8104869 -4.5289807 -0.26798776 88
1.7750078 -4.5204935 -0.26667649 86
1.742931 -4.520124 -0.26592717 93
1.7148101 -4.5297999 -0.26586473 112
1.6814252 -4.5252662 -0.26486567 121
1.6567019 -4.5439382 -0.26542765 158
1.6227437 -4.5371008 -0.26430368 132
1.594874 -4.5469723 -0.26430368 148
1.5630524 -4.5453463 -0.26355439 145
1.5274886 -4.5321507 -0.26205575 144
1.4980875 -4.5366988 -0.26174355 153
1.4705296 -4.5467553 -0.26180601 141
1.4392918 -4.5452256 -0.26111913 143
1.4101949 -4.550158 -0.26086935 146
1.3828278 -4.5606356 -0.26099426 172
1.3525503 -4.561379 -0.26049471 166
1.3231486 -4.5647988 -0.2601825 147
1.2934842 -4.5670695 -0.25980785 155
1.261981 -4.5624142 -0.2589961 146
1.2313635 -4.5604358 -0.25837168 172
1.1990398 -4.5514975 -0.25731015 154
1.1683608 -4.5481348 -0.2566233 158
1.1409163 -4.5571547 -0.2567482 177
1.1167119 -4.5795846 -0.25774726 151
1.0872096 -4.5805235 -0.25737262 182
1.0543736 -4.5666852 -0.25606132 161
1.0230584 -4.5584607 -0.25512469 171
0.99613065 -4.5695281 -0.2554369 162
0.96931183 -4.5814133 -0.25581154 171
0.93957978 -4.5794525 -0.25531203 198
0.90835357 -4.5694685 -0.25431293 165
0.87935704 -4.5700555 -0.25400072 143
0.85129917 -4.5753651 -0.25400072 168
0.81897813 -4.5569258 -0.25250211 161
0.78981012 -4.5549812 -0.25206503 176
0.76430982 -4.5745087 -0.25300166 185
0.73575222 -4.5761557 -0.25281432 179
0.70568186 -4.5677609 -0.2520026 198
0.67691094 -4.5670686 -0.25169039 187
0.64845514 -4.5681715 -0.25150305 146
0.61853784 -4.558218 -0.25062886 171
0.59145266 -4.5688562 -0.25106594 165
0.5627985 -4.5674467 -0.25075373 177
0.53453118 -4.568831 -0.25062886 150
0.50561017 -4.5640888 -0.25012931 187
0.47811368 -4.5720687 -0.25044152 168
0.45131794 -4.5878291 -0.25125328 162
0.42224544 -4.5805731 -0.25062886 169
0.39319375 -4.5721393 -0.24994199 127
0.36449897 -4.5665069 -0.24944246 137
0.33661866 -4.5706482 -0.24956734 166
0.30796486 -4.5636654 -0.24900536 137
0.27965277 -4.5604877 -0.24869315 149
0.25243095 -4.5760698 -0.24956734 132
0.22454236 -4.5815201 -0.2498171 149
0.19561924 -4.5638657 -0.2486307 125
0.16735765 -4.5579982 -0.24819361 121
0.13981058 -4.5729055 -0.2490678 133
0.11179737 -4.5756731 -0.24919268 136
0.083611459 -4.5702853 -0.24881804 140
0.055353347 -4.5527487 -0.24769408 139
0.027428672 -4.5549989 -0.24781896 133
-0.00052264292 -4.5600715 -0.24813117 161
-0.028489718 -4.5579867 -0.24800628 140
-0.056658346 -4.5736933 -0.24900536 185
-0.084833384 -4.579247 -0.24938001 148
-0.1130787 -4.5846267 -0.24975467 149
-0.14130026 -4.5868392 -0.24994199 195
-0.16903377 -4.5749149 -0.24925514 179
-0.19666949 -4.5638204 -0.2486307 212
-0.22540899 -4.5774803 -0.24956734 208
-0.25415713 -4.5879693 -0.25031665 170
-0.28113374 -4.5673966 -0.24913025 205
-0.30955955 -4.5715599 -0.24950489 187
-0.33753049 -4.5685792 -0.24944246 197
-0.36579612 -4.5694065 -0.24962978 207
-0.39451456 -4.5750308 -0.25012931 207
-0.42285529 -4.5755053 -0.25031665 175
-0.45239502 -4.5877228 -0.25125328 196
-0.48105767 -4.5898237 -0.25156549 166
-0.50865936 -4.5818257 -0.25125328 153
-0.53606462 -4.5726709 -0.25087863 164
-0.56300902 -4.5603814 -0.25031665 149
-0.59188074 -4.5637689 -0.25075373 178
-0.62014169 -4.5620294 -0.25087863 169
-0.64981109 -4.5699949 -0.25162792 137
-0.67769301 -4.5649347 -0.25156549 147
-0.70553732 -4.5597043 -0.25150305 175
-0.73334295 -4.5543041 -0.25144061 183
-0.7612738 -4.5497184 -0.25144061 205
-0.78866309 -4.5420117 -0.25125328 197
-0.8174026 -4.5419984 -0.25156549 198
-0.84745294 -4.5486708 -0.25231481 203
-0.87780493 -4.5561252 -0.25312653 197
-0.90828019 -4.5633774 -0.25393829 185
-0.94008392 -4.5762925 -0.25512469 211
-0.9749791 -4.6026573 -0.25718528 181
-0.99766266 -4.5712371 -0.2555618 255
-1.0281018 -4.5757403 -0.25624865 221
-1.0566087 -4.5712905 -0.25637352 231
-1.0834829 -4.5598664 -0.25606132 263
-1.1128628 -4.5589499 -0.25643599 253
-1.1478581 -4.5801091 -0.25824681 247
-1.1746956 -4.5681467 -0.2579346 269
-1.2047409 -4.568573 -0.25843412 239
-1.2330111 -4.5620584 -0.25849655 221
-1.2641788 -4.5659485 -0.25924587 226
-1.294623 -4.5667467 -0.25980785 229
-1.3234547 -4.5615926 -0.25999519 240
-1.3551139 -4.5658236 -0.26080692 237
-1.3854244 -4.5650625 -0.26130646 245
-1.4125212 -4.553616 -0.26111913 266
-1.4440563 -4.5562797 -0.26186845 270
-1.4765999 -4.5615749 -0.26280507 261
-1.5083225 -4.5637999 -0.26355439 285
-1.5382124 -4.5601325 -0.26392904 276
-1.5700642 -4.5619321 -0.26467833 250
-1.6029882 -4.5663371 -0.26561496 264
-1.63064 -4.5554757 -0.26555252 290
-1.6575342 -4.542572 -0.26536521 295
-1.6888566 -4.5416698 -0.26598963 251
-1.7219992 -4.5452204 -0.26692626 308
-1.752732 -4.542017 -0.26742581 287
-1.7871428 -4.5478954 -0.26854974 259
-1.8216913 -4.5535221 -0.26967371 254
-1.85148 -4.5468802 -0.26998591 290
-1.8816379 -4.5409656 -0.27036056 276
-1.9156722 -4.5440478 -0.27135965 314
-1.9517827 -4.5514688 -0.27267092 338
-1.985661 -4.5531282 -0.27360755 305
-2.0123467 -4.5381217 -0.27342024 259
-2.0524657 -4.5529823 -0.2752935 334
-2.0753722 -4.5294161 -0.27454421 282
-2.1035466 -4.5175009 -0.27460665 278
-2.1354964 -4.5135298 -0.27523106 267
-2.1692069 -4.5129333 -0.27610525 279
-2.206933 -4.520164 -0.27754143 293
-2.243942 -4.5253124 -0.2788527 270
-2.275708 -4.5194807 -0.27941468 280
-2.3083961 -4.5152059 -0.28010154 282
-2.3434169 -4.5151286 -0.28110063 338
-2.3771272 -4.5121427 -0.28191236 413
-2.4146552 -4.5159521 -0.28322366 397
-2.4499383 -4.5150852 -0.28422272 428
-2.4819303 -4.5078354 -0.2847847 431
-2.5168469 -4.5055895 -0.28572133 449
-2.5523214 -4.503953 -0.28672042 438
-2.5863776 -4.499455 -0.28753215 425
-2.6250005 -4.5024667 -0.28890589 418
-2.6662979 -4.5094681 -0.29059184 371
-2.6969976 -4.4981585 -0.29096648 395
-2.7401068 -4.5071063 -0.29283974 346
-2.7698059 -4.4936061 -0.29308951 397
-2.8079076 -4.4934521 -0.29433835 385
-2.8455772 -4.4921556 -0.29552475 433
-2.8790207 -4.4838476 -0.29621163 445
-2.9130137 -4.4761343 -0.29696092 390
-2.9591134 -4.4864993 -0.29908395 429
-2.9993467 -4.48734 -0.30052012 405
-3.0341024 -4.4795923 -0.30133188 389
-3.0666158 -4.4682961 -0.30189386 414
-3.1253235 -4.4944568 -0.30532816 355
-3.1534171 -4.4760113 -0.30539063 391
-3.1924217 -4.4728227 -0.30663946 390
-3.2279956 -4.4644713 -0.30751365 380
-3.2647669 -4.4574614 -0.30851272 376
-3.2997887 -4.4477639 -0.30932447 433
-3.3366134 -4.440197 -0.31032354 456
-3.3843524 -4.4466386 -0.31244656 423
-3.4262004 -4.4447565 -0.31394517 423
-3.473681 -4.4496074 -0.31600577 405
-3.5114434 -4.4415169 -0.3170673 418
-3.5648348 -4.4526048 -0.31968987 380
-3.619751 -4.4647536 -0.32243732 331
-3.6477115 -4.4432306 -0.32249975 335
-3.6838403 -4.4315081 -0.32337394 384
-3.7180336 -4.4172192 -0.3240608 391
-3.7580178 -4.409512 -0.32530966 413
-3.8084817 -4.4135675 -0.32755756 376
-3.8545384 -4.4119091 -0.32936838 331
-3.9079928 -4.4180722 -0.33186609 314
-3.9683268 -4.4311776 -0.33498818 296
-4.0101929 -4.4230089 -0.33636191 266
-4.0581827 -4.4211082 -0.33829761 288
-4.0947475 -4.4063582 -0.3391718 309
-4.1476998 -4.4087687 -0.3415446 306
-4.1911964 -4.4005775 -0.34304321 298
-4.2368269 -4.3941731 -0.34472916 296
-4.2567368 -4.3609529 -0.34410474 332
-4.3563862 -4.4085698 -0.35059872 254
-4.3946505 -4.393044 -0.35159779 237
-4.447094 -4.3912363 -0.35384572 295
-4.4911046 -4.380589 -0.35534433 288
-4.5452151 -4.3792586 -0.35771713 268
-4.6009235 -4.3788047 -0.3602148 245
-4.6626153 -4.3832984 -0.36321202 212
-4.7113671 -4.3749766 -0.3650853 263
-4.7646055 -4.3702679 -0.3673332 260
-4.7905912 -4.3402805 -0.36727077 238
-4.8416796 -4.3327632 -0.36933136 258
-4.8816366 -4.3148689 -0.37045532 275
-4.9576497 -4.3281465 -0.37457651 275
-5.0173759 -4.3263168 -0.37732396 281
-5.0757456 -4.3226218 -0.37994653 232
-5.1281462 -4.3132343 -0.38206956 241
-5.1760144 -4.29954 -0.38381794 259
-5.2239075 -4.2854199 -0.38556632 257
-5.3036203 -4.2966261 -0.38987482 236
-5.3298845 -4.2640028 -0.38987482 250
-5.4186077 -4.2807035 -0.39487019 216
-5.4738922 -4.2700834 -0.39718056 259
-5.5426922 -4.2692966 -0.40055242 278
-5.5775232 -4.2418513 -0.40123931 239
-5.6393647 -4.2345099 -0.40404919 256
-5.7630682 -4.272325 -0.41166714 229
-5.8205881 -4.2598662 -0.41410238 240
-5.8490438 -4.2258244 -0.41428971 278
-5.9024935 -4.2095547 -0.41641274 258
-5.9690218 -4.2019777 -0.41953483 264
-6.0717454 -4.2187934 -0.4254044 215
-6.1263289 -4.2012095 -0.42758986 243
-6.2007632 -4.1965365 -0.43127397 264
-6.2678986 -4.1861191 -0.43439606 220
-6.3343043 -4.1744862 -0.43745574 231
-6.4200482 -4.1747055 -0.44195157 208
-6.4774671 -4.1557088 -0.44432437 214
-6.5424843 -4.1409664 -0.44725916 198
-6.5990958 -4.1202974 -0.44956952 207
-6.7245402 -4.1414723 -0.45693767 150
-6.7865076 -4.1224084 -0.45962268 169
-6.8639054 -4.1119695 -0.46343166 169
-6.9448662 -4.1027646 -0.4674904 150
-7.04322 -4.1027646 -0.47279799 156
-7.1435633 -4.102704 -0.47823045 174
-7.2250595 -4.0907497 -0.4822892 164
-7.3145204 -4.082325 -0.4869099 142
-7.3691659 -4.0537181 -0.48903295 183
-7.4702401 -4.049798 -0.49446541 167
-7.5706611 -4.0443182 -0.49983543 141
-7.6571608 -4.0303211 -0.50420636 131
-7.7411137 -4.0140357 -0.50839001 123
-7.8500409 -4.0095787 -0.51432198 140
-7.9181862 -3.9833081 -0.51738167 162
-8.0328112 -3.9793832 -0.52368832 158
-8.1073132 -3.9545159 -0.52718508 129
-8.2393951 -3.9565258 -0.53467816 137
-8.3519506 -3.9476812 -0.54079747 147
-8.4656096 -3.9380236 -0.54697925 160
-8.5540485 -3.9154902 -0.55141264 147
-8.7144251 -3.9243855 -0.56077898 128
-8.7766685 -3.8878136 -0.56340152 168
-8.8342152 -3.8486323 -0.56571192 150
-9.0255594 -3.8662519 -0.57713878 160
-9.1254606 -3.8429408 -0.58232152 156
-9.2761354 -3.8395357 -0.59093851 172
-9.3725586 -3.8122444 -0.59587145 163
-9.5227489 -3.805388 -0.60442603 141
-9.6732044 -3.7968297 -0.6129806 139
-9.8183203 -3.7844136 -0.62116051 152
-9.9571085 -3.7678859 -0.62890333 165
-10.084832 -3.7456272 -0.63589686 136
-10.190147 -3.713742 -0.64139175 149
-10.391311 -3.7149646 -0.65325576 116
-10.511865 -3.6854663 -0.65974975 153
-10.70701 -3.6802487 -0.67117667 130
-10.845731 -3.6536615 -0.67885703 113
-10.922916 -3.6051822 -0.68247867 115
-11.123374 -3.5957892 -0.6942178 96
-11.275592 -3.5687153 -0.70277238 131
-11.467933 -3.5523069 -0.7139495 95
-11.597449 -3.5145721 -0.7210055 84
-11.759465 -3.4850194 -0.7301845 110
-11.955104 -3.4633262 -0.74154896 82
-12.215255 -3.4575675 -0.75709707 88
-12.402665 -3.4285405 -0.76789951 112
-12.518867 -3.3781075 -0.77408129 131
-12.740116 -3.3540637 -0.78706926 139
-12.990537 -3.3348725 -0.80193049 136
-13.255716 -3.3163645 -0.81772834 75
-13.446483 -3.2765379 -0.82871819 70
-13.654733 -3.2386382 -0.84083194 72
-13.898999 -3.2066028 -0.85525608 79
-14.045017 -3.1496406 -0.86337358 84
-14.342011 -3.1239173 -0.88116956 83
-14.736856 -3.1153007 -0.90520978 63
-15.092033 -3.0937386 -0.92668986 76
-15.313374 -3.041307 -0.93961543 79
-15.762999 -3.0301566 -0.96708995 76
-16.025627 -2.9787769 -0.98263806 76
-15.973855 -2.8678727 -0.97820467 83
-16.537931 -2.8644714 -1.0129225 92
-16.857422 -2.8133602 -1.0320922 132
-17.098059 -2.7457795 -1.0462666 105
-17.69458 -2.7302704 -1.0829825 67
-18.328062 -2.7129459 -1.1220089 76
-18.461956 -2.6170979 -1.1294395 74
-18.849539 -2.5541339 -1.1529177 27
-0 -0 -0 6
-0 -0 -0 7
-2.4414654 -0.28618747 -0.11662803 11
-2.4550796 -0.2725172 -0.11737733 26
-2.5013752 -0.26210776 -0.12018723 12
-0 -0 -0 7
-22.5704 -2.0759709 -1.3808941 49
-23.159466 -1.986894 -1.4171104 35
-23.459743 -1.8677086 -1.4352187 22
-24.674166 -1.8120468 -1.5107112 20
-24.970615 -1.6798275 -1.5286322 20
-25.926836 -1.5843691 -1.5879521 32
-27.644152 -1.5190418 -1.694978 18
-28.552124 -1.393231 -1.7513008 33
-29.046741 -1.2387447 -1.7817725 17
-29.984356 -1.0944231 -1.840031 20
-30.741692 -0.93319631 -1.88705 12
-31.799473 -0.77000135 -1.9529264 18
-33.030003 -0.59699184 -2.0296679 11
-34.737587 -0.414599 -2.1363189 10
-0 -0 -0 6
-0 0 -0 5
-1.2864525 0.0072021824 -0.043320958 12
-1.2784004 0.01499463 -0.042821418 31
-1.281278 0.022894688 -0.043008745 31
-1.2751269 0.030606851 -0.042634092 22
-1.2918738 0.038957048 -0.04369561 24
-1.2946025 0.046994422 -0.043882936 25
-1.2972811 0.055066742 -0.044070262 22
-1.3108745 0.063716456 -0.04494445 23
-1.3054762 0.07148134 -0.044632241 33
-1.3060092 0.079551823 -0.044694684 20
-1.3224243 0.088714428 -0.045756198 17
-1.2876204 0.031748801 -0.05099678 19
-1.2824155 0.039493814 -0.050654963 21
-1.2891278 0.047621764 -0.05113351 26
-1.2967851 0.055876814 -0.051680416 25
-1.2844605 0.063240297 -0.050860055 15
-0 0 -0 8
-1.274626 0.078443527 -0.050244782 9
-1.2492367 0.084570542 -0.048535693 8
-1.238745 0.091496073 -0.047852058 11
-0 0 -0 7
-0.41255361 0.035303354 0.0088896835 67
-0.42822361 0.039307762 0.0077958666 277
-0.40911084 0.040068764 0.0090947738 673
-0.39595878 0.041222505 0.0099835005 915
-0.38974917 0.042989034 0.010393681 1174
-0.36470705 0.04246825 0.01210277 1356
-0.36245939 0.044460181 0.012239497 1413
-0.36119041 0.046554748 0.012307861 1430
-0.35298973 0.047692686 0.012854769 1318
-0.33491215 0.0473244 0.014085312 1278
-0.32376066 0.047763731 0.014837312 1166
-0.32346147 0.049749393 0.014837312 1198
-0.31330088 0.050144229 0.015520947 1076
-0.31101945 0.051735792 0.015657675 1078
-0.30086711 0.051933505 0.01634131 977
-0.28974262 0.051831644 0.017093308 905
-0.28745767 0.05324246 0.017230036 881
-0.28222764 0.054060102 0.017571853 799
-0.27993381 0.055400722 0.017708581 795
-0.27567983 0.056313165 0.017982034 817
-0.27337721 0.057589579 0.018118761 784
-0.26814544 0.058200829 0.018460579 765
-0.26680994 0.05962605 0.018528944 710
-0.26255119 0.060362201 0.018802397 670
-0.25926417 0.061279289 0.019007487 704
-0.25597587 0.062158339 0.019212579 716
-0.25268668 0.062999368 0.01941767 688
-0.24939692 0.063802399 0.01962276 701
-0.24707152 0.06482213 0.019759487 705
-0.24185398 0.065034002 0.020101305 772
-0 0 -0 5
-0 0 -0 6
-0.23390947 0.067526869 0.02057985 732
-0 0 -0 5
-0 0 -0 4
-0 0 -0 5
-0 0 -0 3
-0 0 -0 3
-0 0 -0 5
-0 0 -0 4
-0 0 -0 5
-0 0 -0 3
-0 0 -0 7
-0 0 -0 4
-0 0 -0 3
-0 0 -0 5
-0 0 -0 4
-0 0 -0 6
-0 0 -0 6
-0 0 -0 3
-0 0 -0 3
-0 0 -0 5
-0 0 -0 5
-0 0 -0 3
-0 0 -0 3
-0 0 -0 4
-0 0 -0 3
-0 0 -0 5
-0 0 -0 2
-0 0 -0 7
-0 0 -0 5
-0 0 -0 6
-0 0 -0 5
-0 0 -0 3
-0 0 -0 4
-0 0 -0 3
-0 0 -0 3
-0 0 -0 5
-0 0 -0 5
-0 0 -0 3
-0 0 -0 3
-0 0 -0 4
-0 0 -0 4
-0 0 -0 1
-0 0 -0 1
-0 0 -0 1
-0 0 -0 1
-0 0 -0 1
-0 0 -0 1
-0 0 -0 1
-0 0 -0 1
-0 0 -0 1
-0 0 -0 1
-0 0 -0 1
-0 0 -0 1
-0 0 -0 4
-0 0 -0 1
-0 0 -0 1
-0 0 -0 1
-0 0 -0 1
-0 0 -0 1
-0 0 -0 1
-0 0 -0 1
-0 0 -0 1
-0 0 -0 1
-0 0 -0 1
-0 0 -0 1
-0 0 -0 1
-0 0 -0 1
-0 0 -0 1
-0 0 -0 1
-0 0 -0 2
-0 0 -0 3
-0 0 -0 3
-0 0 -0 4
-0 0 -0 4
-0 0 -0 3
-0 0 -0 4
-0 0 -0 5
-0 0 -0 3
-0 0 -0 6
-0 0 -0 5
-0 0 -0 5
-0 0 -0 4
-0 0 -0 5
-0 0 -0 4
-0 0 -0 7
-0 0 -0 5
-0 0 -0 5
-0 0 -0 9
-0 0 -0 5
-0 0 -0 4
-0 0 -0 3
-0 0 -0 4
-0 0 -0 3
-0 0 -0 4
-0 0 -0 3
-0 0 -0 2
-0 0 -0 3
-0 0 -0 2
-0 0 -0 2
-0 0 -0 4
-0 0 -0 2
-0 0 -0 1
-0 0 -0 3
-0 0 -0 1
-0 0 -0 1
-0 0 -0 2
-0 0 -0 2
-0 0 -0 3
-0 0 -0 2
-0 0 -0 1
-0 0 -0 3
-0 0 -0 3
-0 0 -0 3
-0 0 -0 2
-0 0 -0 5
-0 0 -0 7
-0 0 -0 3
-0 0 -0 4
-0 0 -0 6
-0 0 -0 6
-0 0 -0 7
-0 0 -0 4
-0 0 -0 5
-0 0 -0 6
-0 0 -0 5
-0 0 -0 5
-0 0 -0 8
-0 0 -0 6
-0 0 -0 6
-0 0 -0 8
-0 0 -0 5
-0 0 -0 6
-0 0 -0 6
-0 0 -0 7
-0 0 -0 7
-0 0 -0 8
-0 0 -0 7
-0 0 -0 5
-0 0 -0 6
-0 0 -0 5
-0 0 -0 6
-0 0 -0 6
-0 0 -0 6
-0 0 -0 8
-0 0 -0 7
-0 0 -0 6
-0 0 -0 5
-0 0 -0 9
-0 0 -0 4
-0 0 -0 4
-0 0 -0 5
-0 0 -0 5
-0 0 -0 5
-0 0 -0 6
-0 0 -0 6
-0 0 -0 4
-0 0 -0 6
-0 0 -0 4
-0 0 -0 8
-0 0 -0 6
-0 0 -0 6
-0 0 -0 5
-0 0 -0 6
-0 0 -0 7
-0 0 -0 11
-0 0 -0 8
-0 0 -0 8
-0 0 -0 7
-0 0 -0 9
-0 0 -0 9
-0 0 -0 9
-0 0 -0 7
-0 0 -0 11
-0 0 -0 7
-0 0 -0 9
-0 0 -0 10
-0 0 -0 9
-0 0 -0 9
-0.051475182 0.25731891 0.019280942 1612
-0.051024653 0.26350838 0.018870762 1840
-0 0 -0 5
-0.046906244 0.25920478 0.019212579 2077
-0 0 -0 7
-0 0 -0 5
-0.044656437 0.27578518 0.018118761 2425
-0.042963408 0.27605399 0.018118761 2374
-0 0 -0 7
-0 0 -0 9
-0 0 -0 6
-0.037581425 0.28790909 0.017366763 2541
-0 0 -0 6
-0 0 -0 3
-0 0 -0 6
-0 0 -0 2
-0 0 -0 6
-0 0 -0 6
-0 0 -0 5
-0 0 -0 5
-0 0 -0 3
-0.019053424 0.2777268 0.018187126 2575
-0 0 -0 6
-0.016081078 0.285909 0.017640216 2306
-0.013986693 0.27902693 0.018118761 2468
-0.012486476 0.28409129 0.017776944 2432
-0.010743089 0.28416255 0.017776944 2397
-0.0089691086 0.28322592 0.017845308 2362
-0.0072310981 0.28327563 0.017845308 2343
-0.005474865 0.28231716 0.017913671 2303
-0 0 -0 4
-0.0019928629 0.27937016 0.018118761 2377
0 0 -0 4
0.0013833082 0.27139246 0.018665669 2345
0 0 -0 4
0 0 -0 3
0.0063287271 0.26932633 0.018802397 2243
0.0079501467 0.26828524 0.018870762 2253
0.0095961643 0.26823142 0.018870762 2236
0 0 -0 7
0.012245297 0.25513977 0.019759487 1789
0.014587281 0.26900545 0.018802397 1438
0.018085293 0.2987836 0.016751491 421
0.018902775 0.28373662 0.017776944 274
0.021012418 0.28858992 0.017435126 208
0 0 -0 8
0 0 -0 7
0.02641296 0.28914765 0.017366763 149
0.027892042 0.28600168 0.017571853 159
0.029959258 0.28880176 0.017366763 123
0.032061875 0.29158708 0.017161673 133
0.034549158 0.2973299 0.016751491 104
0.036740493 0.30008265 0.0165464 110
0 0 -0 6
0 0 -0 7
0 0 -0 8
0 0 -0 5
0 0 -0 6
0 0 -0 6
0 0 -0 7
0 0 -0 7
0 0 -0 6
0 0 -0 10
0 0 -0 5
5.4671612 27.427876 -1.8791747 32
0 0 -0 5
0 0 -0 8
0 0 -0 7
2.6680412 11.860128 -0.79574925 12
2.7583103 11.919348 -0.8010816 53
2.7762043 11.670234 -0.78474271 60
3.0190167 12.353662 -0.83416957 44
3.0974317 12.34555 -0.83492154 42
3.1863077 12.377518 -0.83854479 101
3.1812098 12.050988 -0.81680518 292
3.2939203 12.174733 -0.82699138 166
3.2808869 11.837989 -0.80449975 110
3.385875 11.931846 -0.812635 69
3.4069881 11.731688 -0.79985106 64
3.4632807 11.657963 -0.79609102 71
5.6181164 18.494205 -1.2872148 15
3.7717586 12.148144 -0.83437461 55
3.9542336 12.465213 -0.85884881 54
3.9346972 12.144602 -0.83751935 77
3.9919071 12.068135 -0.83375937 59
4.0553489 12.012221 -0.83150339 247
6.5312614 18.960636 -1.336915 37
4.1826086 11.905077 -0.82740158 64
6.5090585 18.169024 -1.2852322 61
0 0 -0 23
3.9357693 10.575974 -0.73599946 139
4.0094314 10.574947 -0.73770857 159
4.4753761 11.588764 -0.81400228 96
4.6092038 11.720778 -0.82576084 109
4.613543 11.52371 -0.81331867 171
4.8200836 11.828709 -0.83799791 235
4.4484911 10.728058 -0.75855947 202
4.1586046 9.8576565 -0.6958701 184
4.2276678 9.8521233 -0.69737411 128
4.6108856 10.565722 -0.75268018 209
4.2547708 9.5888519 -0.68158209 156
3.4499316 7.6482716 -0.53767687 157
4.4137034 9.6266041 -0.68841845 106
3.755486 8.0602226 -0.57206368 66
3.8445764 8.1208858 -0.57842153 81
3.6301038 7.5478163 -0.53665137 65
4.0254035 8.2398233 -0.59113717 105
13.146286 26.494431 -1.9894451 32
4.402307 8.7377386 -0.63318074 26
4.4099445 8.6208563 -0.62627602 356
4.5073614 8.6795158 -0.63290727 119
5.7543702 10.916279 -0.80832809 100
4.4892793 8.3913193 -0.61485928 150
4.4178629 8.1374121 -0.59722149 109
7.6224418 13.836301 -1.0452079 129
4.4370718 7.9388952 -0.58594149 120
4.5127659 7.9592519 -0.58970153 269
5.6797194 9.8755083 -0.74338275 199
5.7296505 9.8223763 -0.74194711 366
6.1088328 10.326262 -0.78487945 188
7.9422941 13.239236 -1.0206653 166
8.6243143 14.178121 -1.0998987 69
8.712718 14.127483 -1.1001037 164
6.0753274 9.7172842 -0.7480315 41
5.6920719 8.9812622 -0.69135809 280
4.9031377 7.632565 -0.58436912 295
4.9264688 7.5663867 -0.58142954 312
5.567378 8.4369774 -0.65539885 67
4.9091353 7.3411613 -0.56789356 143
4.9132299 7.2506123 -0.56290299 109
5.0508099 7.356029 -0.57418299 325
5.4781766 7.8744116 -0.6200549 286
5.7430892 8.1480684 -0.64582795 248
5.7332578 8.0290518 -0.63878655 138
5.6508436 7.8118501 -0.62340474 330
5.6803889 7.7520838 -0.62128544 330
6.7048378 9.0332613 -0.73360676 145
5.4435444 7.2408209 -0.58348042 99
5.645021 7.4136519 -0.60125494 178
5.2870593 6.8558946 -0.55599827 260
5.3376245 6.834332 -0.5569554 224
5.1646895 6.5299373 -0.53323323 314
5.3630843 6.6959019 -0.55059755 349
5.0382895 6.2119288 -0.51080996 159
6.2205544 7.5739856 -0.63434291 115
7.3954391 8.8925676 -0.75527799 207
7.4402242 8.8355761 -0.75425255 188
5.4054227 6.3399692 -0.53364342 29
7.5793839 8.7798557 -0.75753403 128
6.4335432 7.3608279 -0.63263381 98
6.1863475 6.9909916 -0.60241711 307
6.2238011 6.9469571 -0.60187024 294
7.6926956 8.481102 -0.74734783 131
6.2343526 6.7892289 -0.59435022 184
6.3608069 6.8421798 -0.60289568 97
6.667294 7.0841684 -0.62935239 153
6.9164157 7.2590833 -0.64979309 231
6.5438538 6.7842536 -0.60863823 164
6.6125426 6.7718105 -0.6113044 239
12.348675 12.491354 -1.166348 44
6.9365101 6.9313192 -0.63468474 101
6.4875488 6.4036622 -0.58737713 120
7.0539055 6.8777122 -0.63782942 172
6.7668524 6.5173421 -0.60651892 56
6.5638413 6.2446556 -0.58354878 320
6.5685902 6.1728368 -0.58040404 304
6.7503929 6.2661219 -0.59387171 74
6.8137169 6.2475071 -0.59619606 99
11.70597 10.60137 -1.0449344 51
11.718747 10.482784 -1.0401489 80
12.315928 10.881659 -1.0888921 72
12.261441 10.700275 -1.0778856 30
0 0 -0 13
29.29644 24.938978 -2.5991111 11
0 0 -0 10
11.623058 9.6511259 -0.99796861 27
13.227301 10.846703 -1.1349008 18
10.251206 8.3016777 -0.86664224 61
9.7962704 7.8342462 -0.82227427 33
11.984817 9.4643726 -1.0091802 70
13.362841 10.420053 -1.1238942 10
13.483442 10.381686 -1.1288164 67
12.603349 9.5814848 -1.0476005 93
14.544982 10.91733 -1.2089385 17
14.622918 10.836193 -1.2098956 30
10.660696 7.7992783 -0.86787277 27
12.713374 9.1816835 -1.037346 100
12.629745 9.0038939 -1.0255874 32
13.552882 9.537097 -1.0983263 25
0 0 -0 14
14.470395 9.9194651 -1.1649123 19
13.739354 9.294961 -1.0994201 48
13.72311 9.1617374 -1.0934041 72
11.078869 7.2986202 -0.87183785 56
11.115915 7.2256107 -0.87122256 37
16.627201 10.663292 -1.3162693 11
14.018853 8.869668 -1.0994885 30
14.074705 8.7845392 -1.0996252 40
14.47412 8.9108791 -1.1274492 16
31.052715 18.855068 -2.4521296 13
31.012043 18.570894 -2.4396875 11
0 0 -0 8
19.372559 11.280365 -1.4988682 14
31.003393 17.798733 -2.4124103 20
30.996544 17.54281 -2.4033179 16
0 0 -0 7
0 0 -0 6
18.216551 9.8718119 -1.3825135 15
19.565178 10.447827 -1.4825977 33
17.746531 9.337224 -1.3368467 19
14.788384 7.665401 -1.1041372 18
19.60845 10.011528 -1.4713862 47
0 0 -0 12
20.572924 10.187626 -1.5358529 22
30.761185 14.998272 -2.3078141 16
19.194363 9.2134457 -1.4216858 13
15.451095 7.3004236 -1.1337386 39
18.884413 8.7811899 -1.3898284 16
15.605744 7.1405659 -1.1387291 46
30.63364 13.789632 -2.264745 14
0 0 -0 9
30.639566 13.342569 -2.252713 22
18.140635 7.7677865 -1.3149704 32
30.597778 12.880031 -2.2376046 17
30.6495 12.680984 -2.2356222 9
30.651871 12.462248 -2.2300847 26
30.621216 12.23138 -2.222223 18
30.597242 12.004637 -2.2149763 23
30.532543 11.763587 -2.2048585 20
30.537895 11.550962 -2.2000048 22
21.168314 7.8589182 -1.5100116 21
30.520798 11.11832 -2.1885881 17
30.516104 10.904989 -2.1833241 14
30.449686 10.671019 -2.1736848 43
30.472132 10.469395 -2.1706085 38
30.421391 10.243702 -2.1623366 19
30.412615 10.033405 -2.1572092 19
30.412848 9.8269777 -2.1528339 22
20.802668 6.581181 -1.4578501 39
20.728294 6.4180069 -1.4496465 21
30.368969 9.1989937 -2.1371102 21
30.343533 8.9883947 -2.1312995 37
30.350199 8.788168 -2.1278813 23
20.653002 5.8432817 -1.4335127 44
30.344208 8.384243 -2.119951 24
30.343067 8.1838675 -2.1162593 33
30.327103 7.980269 -2.1116107 43
30.312685 7.7779188 -2.107167 39
30.316284 7.5808868 -2.1040907 28
30.28759 7.3765497 -2.0988266 42
30.315779 7.1866579 -2.0976646 28
20.895397 4.8183656 -1.4321455 84
20.933331 4.6920266 -1.4327607 72
27.25913 5.9343557 -1.8743892 112
27.254032 5.7583237 -1.871518 148
27.242916 5.5815768 -1.8683048 111
27.230658 5.4051838 -1.8650918 119
27.225101 5.2306571 -1.8624256 123
27.227257 5.0580425 -1.8603747 108
27.237158 4.8871841 -1.8589391 136
20.72743 3.5881007 -1.4041848 92
20.730358 3.4577336 -1.4028859 99
20.718678 3.325253 -1.4006299 105
20.708124 3.1933501 -1.3985106 83
20.703642 3.0627236 -1.3968699 96
20.705254 2.9332523 -1.3957077 98
27.172749 3.6794291 -1.8417114 56
27.154245 3.5073915 -1.8389086 146
27.154461 3.3381543 -1.8374729 165
27.167496 3.1706653 -1.8369944 138
27.179499 3.0031421 -1.8365158 127
28.106342 2.9310908 -1.8991368 34
28.559681 2.8013265 -1.9291484 25
29.841026 2.7422371 -2.0161753 64
29.932835 2.5655584 -2.0213709 85
0 0 -0 9
31.411762 2.3043752 -2.1209764 18
0 0 -0 11
0 0 -0 10
0 0 -0 12
0 0 -0 16
0 0 -0 11
30.163242 1.0988529 -2.0310102 24
29.765551 0.90152717 -2.0033228 19
28.613573 0.69095051 -1.9240211 21
28.053686 0.50522608 -1.8853958 22
27.349964 0.32470724 -1.8369944 18
26.660074 0.15292926 -1.7896185 20
25.914261 -0.01034742 -1.7384825 26
24.986902 -0.16328306 -1.6749728 20
24.472673 -0.31009138 -1.6398339 32
23.924686 -0.44997597 -1.602439 29
23.201389 -0.57879078 -1.5530806 30
22.664907 -0.70457822 -1.5165744 42
21.940346 -0.81682318 -1.467216 29
21.48241 -0.9317953 -1.4361789 31
21.170382 -1.048436 -1.4151913 39
20.710316 -1.1530724 -1.3840859 48
20.018766 -1.2378144 -1.3371202 47
19.746029 -1.3426161 -1.3189354 52
19.222046 -1.4255192 -1.2835231 54
18.804216 -1.5105944 -1.2554257 42
18.560022 -1.6056484 -1.2392919 35
18.124645 -1.6800791 -1.2100323 35
17.823101 -1.7624857 -1.1900018 54
17.338675 -1.822067 -1.1573924 59
17.008884 -1.8929904 -1.1354476 69
16.7859 -1.9725139 -1.1208862 88
16.370508 -2.0256014 -1.0930623 86
16.202444 -2.1058195 -1.0823292 84
15.789853 -2.1507874 -1.0547104 102
15.54129 -2.2141356 -1.0384399 87
15.19486 -2.2599833 -1.0154012 106
14.95494 -2.3181725 -0.99974602 135
14.73163 -2.3762047 -0.98525298 146
14.519986 -2.4335647 -0.97158027 116
14.288543 -2.4849985 -0.95654029 126
14.081568 -2.53811 -0.94320941 127
13.817605 -2.5781617 -0.92591339 128
13.585036 -2.6211202 -0.91080505 112
13.410195 -2.6728306 -0.89973021 154
13.16781 -2.7086236 -0.88393819 193
13.026022 -2.7628689 -0.8751877 179
12.833386 -2.8044002 -0.86288226 167
12.589152 -2.8320663 -0.84695351 191
12.431575 -2.8768644 -0.83710915 172
12.22734 -2.9087522 -0.82398337 161
12.126885 -2.963589 -0.81817245 187
11.905264 -2.9869518 -0.80381614 203
11.757248 -3.026613 -0.79465544 162
11.568685 -3.0538752 -0.78262341 187
11.42935 -3.0922289 -0.77407801 190
11.275563 -3.1249917 -0.76450711 149
11.054627 -3.1369183 -0.75015074 220
10.953735 -3.1810367 -0.74433982 208
10.839334 -3.220058 -0.73757184 234
10.665684 -3.239816 -0.7265653 212
10.487441 -3.2560868 -0.71521699 221
10.400699 -3.2992568 -0.71043152 245
10.235049 -3.3159611 -0.69997191 254
10.09043 -3.3376522 -0.69101626 267
10.00643 -3.3781202 -0.68643594 264
9.8751526 -3.401437 -0.67843741 289
9.7364397 -3.4206254 -0.66989195 255
9.6288614 -3.4493456 -0.66360247 268
9.4772558 -3.4607899 -0.65409994 309
9.3726273 -3.4879048 -0.64801562 249
9.2829514 -3.5195267 -0.6430251 314
9.1374025 -3.5286143 -0.63393271 283
9.0793705 -3.5703733 -0.63126653 294
8.9091034 -3.5666831 -0.62032837 302
8.8159113 -3.5922899 -0.61506438 226
8.6978617 -3.60657 -0.60795456 140
8.5744572 -3.6172113 -0.6004346 153
8.490675 -3.6433938 -0.59585422 175
8.3410625 -3.6399527 -0.58635169 149
8.2747993 -3.6716397 -0.58307022 160
8.2266521 -3.7108564 -0.58115608 196
8.1357126 -3.730077 -0.57602882 278
8.0864468 -3.7677064 -0.57404625 317
7.985631 -3.7805371 -0.56816697 315
7.8714786 -3.7857871 -0.56126225 251
7.7593584 -3.7906561 -0.55449426 270
7.6841197 -3.812475 -0.55052918 250
7.5839605 -3.8209441 -0.54464996 236
7.4804368 -3.8265116 -0.53849721 282
7.4249434 -3.8557849 -0.53603613 228
7.3384852 -3.868238 -0.53118229 351
7.2899814 -3.9000149 -0.52926815 352
7.1668406 -3.8908787 -0.52154303 276
7.0781689 -3.8991554 -0.51648414 213
6.9975057 -3.9108727 -0.5120405 236
6.894403 -3.9089534 -0.50581944 229
6.8270478 -3.926312 -0.50240123 247
6.7381968 -3.9304242 -0.49727401 221
6.6572833 -3.9381673 -0.492762 329
6.5594201 -3.9348016 -0.48688275 217
6.4882741 -3.9464583 -0.48312274 168
6.429122 -3.9647229 -0.48031983 366
6.3606858 -3.976593 -0.47676495 311
6.2881351 -3.9851034 -0.4728682 344
6.1989336 -3.9820888 -0.46760422 265
6.1426139 -3.9993627 -0.46500641 255
6.0796552 -4.0117002 -0.46186167 281
5.997704 -4.0106602 -0.45714459 188
5.9490318 -4.0311551 -0.45516205 216
5.8888206 -4.0432973 -0.45222241 218
5.8000231 -4.0349112 -0.44689006 223
5.7303071 -4.0388098 -0.44313008 279
5.6981106 -4.068676 -0.44251481 317
5.6051397 -4.0544424 -0.43677226 155
5.5487728 -4.0657597 -0.43410608 181
5.5237212 -4.0997295 -0.43410608 226
5.4147329 -4.0705938 -0.42692792 270
5.3761606 -4.0934658 -0.42576572 265
5.3122325 -4.0965214 -0.42241591 361
5.2563334 -4.1050892 -0.41974974 355
5.1880102 -4.1032228 -0.41598976 353
5.1199098 -4.1006742 -0.41222975 288
5.067534 -4.1100149 -0.40983704 246
5.0075274 -4.112536 -0.40676066 169
4.9614892 -4.1259599 -0.40491486 165
4.9017396 -4.1274061 -0.40183848 216
4.8611388 -4.1444588 -0.40047121 256
4.8197589 -4.1605172 -0.39903557 253
4.7385545 -4.1414256 -0.39397669 180
4.7093182 -4.1671166 -0.39363486 241
4.6286759 -4.1466689 -0.38857597 137
4.5854106 -4.158905 -0.38693523 152
4.5399656 -4.1687422 -0.38508943 125
4.5223389 -4.2039928 -0.38584143 175
4.4659462 -4.2029433 -0.38297015 143
4.4133496 -4.2048025 -0.38044071 170
4.3910565 -4.2352662 -0.38078251 182
4.3435736 -4.2412181 -0.37873161 165
4.264967 -4.2158861 -0.37367272 183
4.2164536 -4.2193923 -0.37148508 168
4.1841769 -4.2387938 -0.37086982 178
4.1316247 -4.2372427 -0.36827198 236
4.0896301 -4.2459865 -0.36669964 212
4.0373707 -4.2435322 -0.36410183 141
3.992811 -4.2485948 -0.36225599 152
3.9347677 -4.238647 -0.35904291 173
3.8958759 -4.2487383 -0.35774401 158
3.8596876 -4.2614703 -0.35671854 131
3.8407834 -4.2932525 -0.35747054 120
3.795212 -4.2950559 -0.355488 167
3.7668188 -4.3160071 -0.3552829 176
3.6907642 -4.2816048 -0.35008729 118
3.6547229 -4.2927752 -0.34906185 154
3.610338 -4.2937369 -0.34714764 141
3.5896599 -4.3227172 -0.34776291 173
3.5371325 -4.3130312 -0.34496003 127
3.4861157 -4.3044157 -0.34229383 125
3.4546542 -4.3194919 -0.34174693 113
3.4237573 -4.3351269 -0.34126839 141
3.3835967 -4.3387446 -0.33976439 125
3.3459556 -4.3451948 -0.33853385 127
3.3186274 -4.3648496 -0.33846548 149
3.274415 -4.3619905 -0.33648294 137
3.2529345 -4.389214 -0.33709821 98
3.2006128 -4.3744674 -0.33415857 143
3.1707907 -4.3899794 -0.33381677 158
3.1270003 -4.3857937 -0.33183423 143
3.0908446 -4.3918433 -0.33074039 132
3.0507493 -4.3918791 -0.32916805 142
3.0226157 -4.4088697 -0.32903132 160
2.9653199 -4.3827109 -0.32533967 100
2.933387 -4.3933554 -0.32472441 103
2.9074724 -4.4129376 -0.32486114 119
2.8694663 -4.4139647 -0.32349387 103
2.8315575 -4.4146924 -0.3221266 81
2.7980154 -4.4218659 -0.32130623 100
2.7528713 -4.4101753 -0.31898189 76
2.7027469 -4.3896017 -0.31597388 57
2.6830108 -4.4180417 -0.31693098 93
2.6399629 -4.4078875 -0.31481171 59
2.6113451 -4.4214258 -0.31460661 59
2.5836644 -4.4365034 -0.31453824 43
2.5504336 -4.4418902 -0.31371787 66
2.5133028 -4.4400907 -0.3123506 67
2.4690001 -4.4249344 -0.30995789 129
2.4365151 -4.4303842 -0.30920589 136
2.4054823 -4.4382339 -0.30865899 111
2.367866 -4.4335489 -0.30715498 135
2.3378305 -4.4426966 -0.30674481 108
2.3054767 -4.4472146 -0.30599281 155
2.2772384 -4.4594998 -0.30585608 102
2.2399724 -4.4537797 -0.30435207 111
2.2148159 -4.4719105 -0.30469391 100
2.1812141 -4.4728613 -0.30373681 103
2.1524329 -4.4834628 -0.30353171 161
2.1133754 -4.47223 -0.3016859 125
2.0715928 -4.4543552 -0.29936153 93
2.0425622 -4.4633536 -0.29908809 111
2.0245557 -4.4967265 -0.30066043 146
1.9840009 -4.4798727 -0.29847282 127
1.9512975 -4.4800706 -0.29758409 109
1.9222008 -4.4882908 -0.29731062 105
1.8923028 -4.4944835 -0.29690045 102
1.8574427 -4.4884944 -0.29560155 112
1.8174673 -4.4693084 -0.29334554 148
1.7881597 -4.4757438 -0.29300374 149
1.7548335 -4.4717712 -0.2919099 88
1.7259275 -4.4787307 -0.29163647 112
1.6977081 -4.4873705 -0.29149973 95
1.6687533 -4.4939618 -0.29122627 87
1.6377327 -4.4947424 -0.29054263 110
1.6114656 -4.5084643 -0.2908161 139
1.5804724 -4.508852 -0.29013246 133
1.5446728 -4.4948769 -0.28842336 126
1.5106964 -4.4853601 -0.28705609 118
1.478458 -4.4803333 -0.28603065 109
1.4500192 -4.4864726 -0.28582555 144
1.4278797 -4.5124073 -0.28705609 108
1.3983948 -4.5153651 -0.28664592 144
1.3666139 -4.5104933 -0.28568882 161
1.3391956 -4.5197501 -0.28575718 115
1.3075532 -4.5144663 -0.28480011 118
1.2792851 -4.520484 -0.28466338 98
1.24621 -4.509016 -0.28329611 136
1.2156621 -4.5059819 -0.28254411 172
1.1872295 -4.5104618 -0.28233901 139
1.1535808 -4.4944692 -0.2806983 140
1.1250135 -4.497591 -0.28042483 159
1.099048 -4.5111947 -0.28090337 164
1.0720376 -4.5207658 -0.28110847 149
1.0404679 -4.5107322 -0.2799463 163
1.0094981 -4.5024285 -0.27892083 155
0.9827016 -4.5124373 -0.2791943 172
0.9558202 -4.5222864 -0.27946773 174
0.92344868 -4.5055871 -0.27789539 164
0.89850473 -4.5248685 -0.27885246 181
0.87072378 -4.5302963 -0.27885246 187
0.8385371 -4.5120125 -0.27721176 179
0.81065989 -4.5160909 -0.27714339 173
0.7822538 -4.5170479 -0.27686992 159
0.75682068 -4.5355396 -0.27782702 175
0.72549915 -4.5184264 -0.27632302 165
0.69456834 -4.5020871 -0.27488738 156
0.66897464 -4.520081 -0.27584448 174
0.64038783 -4.5181737 -0.27543429 164
0.61198354 -4.5170751 -0.27509248 153
0.58310568 -4.5118399 -0.27447721 127
0.55711454 -4.5291958 -0.27543429 164
0.52919781 -4.531538 -0.27536592 142
0.49973956 -4.5198255 -0.27434048 127
0.47282475 -4.530745 -0.27488738 137
0.44530785 -4.5365396 -0.27509248 151
0.41700736 -4.5342188 -0.27475065 127
0.38832623 -4.526752 -0.27406701 127
0.35991061 -4.5210934 -0.27352011 147
0.33172506 -4.5172467 -0.27310994 133
0.30426899 -4.5231791 -0.27338338 138
0.27650955 -4.5249605 -0.27338338 130
0.24934091 -4.5375299 -0.27413538 132
0.22086343 -4.5260201 -0.27324668 136
0.19270632 -4.5183196 -0.27263138 132
0.16505142 -4.5214109 -0.27276811 157
0.13739602 -4.5253301 -0.27297321 137
0.10984317 -4.5350642 -0.27358848 164
0.08185292 -4.5266752 -0.27297321 153
0.053886954 -4.5111308 -0.2718794 142
0.026228992 -4.515367 -0.27215284 182
-0.0014793414 -4.5204315 -0.27249467 183
-0.029261906 -4.5273209 -0.27297321 148
-0.056964535 -4.5210705 -0.27256304 196
-0.084760562 -4.5236282 -0.27276811 194
-0.11244074 -4.520031 -0.27256304 193
-0.14032809 -4.5242419 -0.27290484 174
-0.16801141 -4.5213017 -0.27276811 215
-0.19549093 -4.5142055 -0.27235794 191
-0.22372891 -4.5238819 -0.27310994 192
-0.25170463 -4.5264082 -0.27338338 227
-0.27971977 -4.5287619 -0.27365685 169
-0.30790865 -4.5329323 -0.27406701 180
-0.33571643 -4.5309577 -0.27406701 155
-0.36431062 -4.5387568 -0.27475065 158
-0.38897073 -4.49966 -0.27222121 106
-0.42007282 -4.5349379 -0.27481902 166
-0.44612318 -4.5144043 -0.27358848 134
-0.4751704 -4.5244803 -0.27447721 130
-0.50380617 -4.5294123 -0.27502412 136
-0.53030759 -4.5153365 -0.27427211 110
-0.55898345 -4.5199184 -0.27481902 136
-0.58670664 -4.5164032 -0.27481902 151
-0.61386901 -4.5087643 -0.27454558 154
-0.64250791 -4.5118265 -0.27502412 183
-0.67120743 -4.5147066 -0.27550265 196
-0.69920218 -4.512475 -0.27563938 187
-0.72878379 -4.5199189 -0.27645975 233
-0.75402975 -4.5006032 -0.27543429 193
-0.78385335 -4.5086699 -0.27632302 218
-0.81309623 -4.5126119 -0.27693829 208
-0.84278297 -4.5183258 -0.27769029 183
-0.86878979 -4.5042529 -0.27707502 218
-0.90304232 -4.5321035 -0.27939939 220
-0.92942655 -4.5196366 -0.27892083 230
-0.95382851 -4.4982338 -0.27782702 265
-0.98247623 -4.49717 -0.27816883 225
-1.0113659 -4.4968967 -0.27857903 280
-1.0411888 -4.5003262 -0.27926266 290
-1.0699373 -4.4987059 -0.27960446 263
-1.0982313 -4.4949632 -0.27980956 278
-1.1313759 -4.5103965 -0.28138193 235
-1.1607711 -4.5101323 -0.28186047 273
-1.1924976 -4.5183592 -0.28295428 261
-1.2199388 -4.509994 -0.28288591 240
-1.2478551 -4.5033851 -0.28295428 259
-1.2770981 -4.5014019 -0.28336447 264
-1.3071985 -4.5021038 -0.28397974 273
-1.3350824 -4.4949546 -0.28404811 266
-1.3701779 -4.511497 -0.28582555 263
-1.3981299 -4.5039577 -0.28589392 272
-1.4302648 -4.5095587 -0.28691939 291
-1.4591382 -4.5044937 -0.28719282 262
-1.4886297 -4.5011392 -0.28760302 266
-1.5146245 -4.4871941 -0.28726119 237
-1.5470029 -4.4919648 -0.28828666 253
-1.5828041 -4.5059195 -0.28999573 263
-1.6134505 -4.5045757 -0.290611 280
-1.6427709 -4.4992762 -0.29095283 296
-1.671739 -4.4928517 -0.29122627 288
-1.7031661 -4.4927711 -0.29197827 282
-1.7346549 -4.4924731 -0.29273027 304
-1.7643784 -4.4873157 -0.29314044 313
-1.7933623 -4.4801097 -0.29341391 365
-1.8264655 -4.4828801 -0.29443938 307
-1.8611988 -4.4890981 -0.29573828 312
-1.8933622 -4.4886241 -0.29655862 294
-1.9307045 -4.4998422 -0.29826772 350
-1.954687 -4.4796815 -0.29765245 316
-1.984565 -4.4730749 -0.29806262 281
-2.0168972 -4.4717264 -0.29888299 332
-2.0542772 -4.4810319 -0.30052373 257
-2.0905826 -4.4873328 -0.30195937 245
-2.1227732 -4.4843392 -0.30271134 318
-2.1601951 -4.4919086 -0.30428371 300
-2.1934097 -4.490222 -0.30517244 292
-2.2142682 -4.463274 -0.30414698 352
-2.2407148 -4.4478216 -0.30401027 376
-2.275234 -4.4481997 -0.30510408 416
-2.3089225 -4.4465508 -0.30606118 405
-2.3501201 -4.4587755 -0.30811208 483
-2.383553 -4.4557071 -0.30900079 468
-2.4117999 -4.4427519 -0.30913752 533
-2.4568272 -4.4602008 -0.31166697 505
-2.4822011 -4.4415588 -0.31139353 455
-2.5212178 -4.447073 -0.31303424 467
-2.5539286 -4.4410324 -0.31378624 458
-2.588671 -4.4382043 -0.31481171 465
-2.6371903 -4.4583001 -0.31768295 433
-2.6716819 -4.4540114 -0.31864005 410
-2.6974056 -4.4349775 -0.31843495 436
-2.7444685 -4.4506106 -0.32103279 420
-2.77913 -4.4455299 -0.32198986 407
-2.8079572 -4.430922 -0.32219496 398
-2.8410237 -4.422842 -0.32294697 430
-2.8740966 -4.4145231 -0.32369897 394
-2.918714 -4.4234509 -0.32588658 450
-2.9596663 -4.4261909 -0.32759568 490
-2.9974034 -4.4236388 -0.32889459 451
-3.0335257 -4.418323 -0.32998839 451
-3.0611489 -4.4004455 -0.33005676 462
-3.1099341 -4.4125662 -0.3326546 435
-3.1560838 -4.4201932 -0.33491057 397
-3.1878242 -4.4072113 -0.33545747 379
-3.2271903 -4.4044671 -0.33689311 360
-3.2642636 -4.398201 -0.33805531 391
-3.3007817 -4.3908477 -0.33914912 416
-3.3403542 -4.3871799 -0.34058475 373
-3.3818333 -4.3855615 -0.34222549 448
-3.4320154 -4.3946056 -0.3448233 441
-3.4762459 -4.3953738 -0.34673747 455
-3.5031497 -4.373961 -0.34673747 411
-3.556947 -4.3857007 -0.34967712 409
-3.6015205 -4.3853793 -0.35159129 397
-3.6417577 -4.3793063 -0.35302693 358
-3.6814129 -4.3721404 -0.3543942 369
-3.7204695 -4.3638935 -0.3556931 351
-3.7726023 -4.3704343 -0.35835928 359
-3.8105094 -4.3599734 -0.35952145 361
-3.8557031 -4.3574295 -0.36143562 365
-3.9016738 -4.3552375 -0.36341819 321
-3.9504433 -4.3556004 -0.36567417 342
-3.9932899 -4.3489146 -0.3673149 328
-4.0307684 -4.3360205 -0.36840871 276
-4.0730247 -4.3279157 -0.36998108 294
-4.12428 -4.3288441 -0.37244216 305
-4.1812396 -4.3350501 -0.37545016 342
-4.221004 -4.3228745 -0.37674907 353
-4.2832212 -4.333077 -0.38023561 302
-4.3273711 -4.3243427 -0.38194469 294
-4.3587937 -4.3026147 -0.38242325 290
-4.4036851 -4.2938967 -0.38420069 281
-4.4586935 -4.294477 -0.38693523 269
-4.5044765 -4.285604 -0.38878104 285
-4.5663128 -4.2913604 -0.39213085 319
-4.6232696 -4.2917666 -0.39500213 330
-4.6870203 -4.2977028 -0.39848867 295
-4.73105 -4.284935 -0.40012941 254
-4.7810478 -4.2771096 -0.40231705 221
-4.8243976 -4.262886 -0.40388939 273
-4.8572288 -4.2391071 -0.40450466 269
-4.9095979 -4.2320209 -0.4068974 255
-4.9932089 -4.2509642 -0.41209301 267
-5.0505075 -4.2465687 -0.41489592 256
-5.1025662 -4.2371678 -0.41722029 264
-5.1415839 -4.2165337 -0.41838247 206
-5.2014737 -4.2125311 -0.42139047 264
-5.2630653 -4.2091975 -0.42453519 266
-5.3146319 -4.197228 -0.42679119 307
-5.3796234 -4.1952124 -0.43020937 316
-5.4495316 -4.196208 -0.43403772 241
-5.4926496 -4.1759739 -0.43554172 256
-5.5532775 -4.1685438 -0.4385497 296
-5.6228375 -4.1670599 -0.44230971 324
-5.6805081 -4.1560421 -0.44504425 323
-5.7358279 -4.1427202 -0.44757369 282
-5.8212547 -4.1503024 -0.45263261 288
-5.8621135 -4.1254144 -0.45393151 257
-5.936481 -4.1235137 -0.45803332 235
-6.0102215 -4.1202903 -0.46206677 246
-6.0618329 -4.101223 -0.46425441 188
-6.1333494 -4.0949712 -0.46808276 244
-6.2325096 -4.1061058 -0.47416711 215
-6.3194871 -4.1080208 -0.47922602 197
-6.3697686 -4.0853243 -0.48127693 208
-6.4259105 -4.0658989 -0.48380637 183
-6.5125213 -4.0649533 -0.48879692 207
-6.5942626 -4.0599585 -0.49337727 204
-6.6787443 -4.0556655 -0.49816272 162
-6.7599955 -4.0484371 -0.5026747 168
-6.8285208 -4.0327539 -0.50616127 207
-6.8876233 -4.010859 -0.50889581 168
-6.9804564 -4.0077615 -0.51429653 181
-7.0413828 -3.9854929 -0.51716781 166
-7.1249504 -3.9752641 -0.52181649 157
-7.2479949 -3.9857898 -0.52954161 156
-7.3345923 -3.9749897 -0.5343954 157
-7.4028473 -3.953407 -0.5378136 185
-7.496716 -3.9446065 -0.54321432 179
-7.609354 -3.9444427 -0.55005068 147
-7.7027206 -3.9330633 -0.55538303 185
